ncols         200
nrows         112
xllcorner     -9999.99999849
yllcorner     24499.9999933
cellsize      250
NODATA_value  -9999
99 95 96 97 97 95 100 100 104 118 122 120 126 137 142 148 146 153 164 176 181 185 194 199 209 212 212 223 217 216 212 210 212 211 208 208 210 202 202 199 206 198 206 211 219 229 234 259 266 284 286 293 302 320 332 364 412 447 488 547 597 615 604 647 689 744 790 835 878 928 987 1077 1105 1123 1140 1178 1233 1380 1508 1469 1347 1314 1338 1292 1267 1297 1349 1437 1471 1532 1673 1593 1466 1390 1366 1354 1340 1319 1312 1310 1311 1311 1293 1283 1283 1288 1272 1292 1281 1211 1089 1001 950 901 894 885 869 870 895 941 1017 1104 1182 1224 1193 1053 937 876 863 852 835 842 838 840 846 853 854 859 878 914 881 849 828 859 886 873 845 841 867 904 894 803 747 717 674 649 621 595 590 588 595 604 616 653 640 624 617 606 587 578 564 556 538 498 446 427 410 400 385 361 330 296 256 204 185 189 212 239 276 361 432 471 512 547 523 440 362 318 286 261
95 91 103 94 101 94 116 118 123 132 137 131 137 147 157 161 168 179 181 196 202 209 213 228 230 240 243 243 244 243 244 244 254 243 242 235 235 232 223 227 233 227 230 237 252 264 278 297 296 314 324 336 349 362 382 410 441 493 535 593 652 682 691 715 745 790 832 878 916 971 1043 1125 1118 1138 1159 1186 1210 1268 1401 1480 1424 1390 1386 1342 1297 1314 1377 1466 1501 1544 1677 1534 1428 1387 1374 1362 1339 1337 1332 1332 1319 1309 1297 1301 1317 1319 1392 1422 1431 1325 1217 1104 1020 939 912 911 919 944 956 992 1128 1231 1303 1342 1302 1183 1110 991 902 876 861 839 823 836 876 897 893 880 829 788 754 728 721 724 737 741 749 763 804 842 865 828 738 664 635 603 575 574 576 584 583 599 606 674 637 624 610 593 580 573 572 573 553 526 471 448 429 419 398 369 332 299 259 204 180 184 202 214 244 334 459 459 440 440 445 362 311 281 288 241
101 95 93 108 119 128 133 137 145 144 141 142 152 159 169 177 191 192 209 218 225 237 246 256 270 271 276 276 273 277 281 279 285 279 276 273 262 268 266 256 255 262 263 273 287 300 310 325 334 344 363 378 400 410 430 465 509 541 590 638 710 745 765 765 793 831 873 921 974 1048 1134 1185 1149 1164 1172 1201 1213 1229 1289 1362 1491 1482 1443 1392 1320 1330 1367 1511 1548 1601 1570 1480 1415 1398 1376 1357 1346 1345 1339 1341 1333 1324 1324 1341 1344 1359 1415 1565 1561 1419 1308 1205 1132 1098 1046 1014 980 985 988 1035 1187 1338 1398 1462 1385 1292 1241 1101 974 910 871 837 818 802 793 810 801 779 738 719 690 699 691 686 677 656 663 654 655 686 692 725 720 625 590 570 549 550 558 566 572 579 637 731 650 631 618 589 575 579 585 578 577 562 516 475 451 435 414 381 342 307 256 199 178 174 193 208 222 270 323 320 310 313 313 283 264 252 226 211
125 130 123 133 141 146 144 150 150 154 152 154 164 178 185 198 214 219 231 243 257 268 276 292 297 303 312 311 315 318 316 321 320 312 308 312 304 319 310 302 298 301 301 311 325 330 350 364 378 393 403 426 456 459 481 527 569 609 640 701 774 804 828 841 835 875 925 986 1058 1150 1248 1239 1201 1179 1190 1199 1216 1223 1267 1350 1467 1551 1510 1464 1386 1357 1375 1485 1574 1484 1453 1427 1409 1395 1383 1367 1371 1349 1344 1338 1337 1342 1353 1378 1372 1378 1415 1563 1681 1533 1424 1310 1283 1252 1133 1034 1013 1010 1021 1083 1243 1377 1405 1444 1444 1380 1298 1112 1017 964 910 847 798 780 776 764 757 751 726 712 707 689 684 674 659 656 636 617 605 586 585 580 576 561 534 536 524 530 533 548 550 593 712 778 665 643 625 594 593 592 604 613 613 599 576 505 482 454 428 397 353 309 241 194 175 164 179 197 200 207 204 204 194 205 218 215 212 197 194 188
150 149 147 153 151 151 157 157 168 168 165 176 189 206 220 239 249 259 269 288 296 305 326 337 337 334 346 357 363 365 368 365 369 364 363 359 365 374 365 354 350 361 353 366 373 389 400 414 430 442 450 482 508 518 552 594 629 678 718 752 808 853 887 897 909 930 980 1057 1163 1264 1346 1307 1243 1196 1203 1218 1226 1244 1261 1331 1476 1596 1583 1557 1508 1437 1424 1510 1597 1474 1453 1425 1401 1397 1384 1374 1370 1326 1346 1332 1337 1336 1350 1384 1391 1395 1449 1605 1729 1653 1530 1472 1387 1242 1105 1047 1046 1034 1036 1099 1231 1370 1392 1442 1526 1375 1215 1111 1049 1007 951 864 789 777 762 748 737 730 727 719 708 693 671 664 657 648 628 612 597 578 557 546 519 487 490 498 493 492 524 531 528 632 776 772 674 656 629 626 631 642 649 651 649 652 644 562 513 479 445 420 379 309 219 186 181 162 169 184 181 180 167 151 147 158 158 150 166 153 154 151
162 162 160 155 156 165 171 178 188 203 200 204 230 244 258 273 288 294 311 332 345 356 379 396 390 395 406 416 423 427 431 431 429 426 420 414 420 423 424 417 419 418 415 418 427 442 459 470 495 497 504 532 565 582 613 655 701 752 792 827 865 890 927 953 957 973 1027 1148 1261 1358 1466 1390 1281 1221 1217 1231 1247 1259 1278 1296 1415 1603 1645 1607 1634 1565 1513 1551 1498 1460 1430 1425 1415 1405 1392 1387 1376 1365 1329 1347 1350 1362 1377 1391 1417 1457 1523 1629 1776 1743 1629 1492 1365 1217 1099 1077 1075 1061 1069 1142 1189 1280 1370 1394 1516 1336 1196 1129 1092 1048 985 873 797 768 749 743 730 727 728 721 711 693 672 666 658 653 627 607 593 583 564 530 512 492 466 477 462 472 489 493 512 671 811 771 686 658 657 666 692 667 664 663 656 697 716 636 535 489 457 429 389 289 201 180 173 170 154 179 173 142 111 122 124 115 109 113 113 116 111 114
165 161 159 165 172 181 208 210 222 228 249 262 280 298 308 324 339 354 366 379 402 415 434 440 449 457 471 488 495 500 500 505 506 501 497 493 493 496 494 484 487 488 491 492 492 508 525 534 551 558 568 585 622 649 681 727 780 832 869 902 916 934 959 982 988 1007 1067 1216 1347 1461 1538 1458 1321 1238 1236 1252 1262 1272 1288 1285 1357 1540 1734 1700 1652 1553 1493 1480 1468 1457 1446 1438 1415 1412 1401 1393 1387 1372 1358 1375 1368 1374 1382 1396 1414 1529 1625 1677 1820 1722 1570 1427 1312 1185 1105 1105 1097 1090 1128 1177 1194 1250 1352 1370 1411 1324 1219 1160 1135 1081 991 884 803 759 748 740 731 734 730 723 709 693 678 668 655 645 632 616 595 621 550 546 500 483 478 462 448 449 453 462 469 633 722 724 667 667 722 754 719 694 673 688 705 774 821 727 585 491 450 381 297 211 181 169 175 160 159 141 122 122 77 74 95 76 77 72 84 72 65 75
162 168 178 196 211 228 243 260 276 296 315 332 346 363 375 394 406 425 438 451 464 478 494 510 528 543 560 578 590 592 584 589 598 586 584 582 583 589 575 578 581 587 588 585 587 599 605 616 626 638 650 658 690 730 768 809 860 910 950 973 977 983 998 1011 1018 1041 1088 1242 1377 1538 1611 1531 1388 1268 1246 1269 1279 1293 1294 1309 1357 1528 1682 1726 1620 1510 1485 1472 1469 1457 1441 1440 1430 1420 1413 1394 1396 1385 1386 1399 1387 1387 1395 1397 1415 1493 1650 1792 1796 1638 1499 1362 1253 1152 1130 1127 1119 1152 1245 1236 1233 1263 1325 1353 1367 1293 1246 1190 1133 1102 994 891 792 757 751 736 742 724 735 723 717 700 692 672 662 653 630 615 585 579 550 515 489 468 464 456 431 436 424 434 440 527 588 615 646 663 787 823 747 706 706 747 812 852 804 717 573 422 317 247 202 185 167 156 160 156 153 125 83 88 60 54 42 30 34 33 61 52 35 43
185 199 214 222 252 279 299 324 348 366 384 397 415 431 440 455 471 488 513 525 545 562 580 601 624 643 655 676 693 729 711 712 695 679 687 679 682 685 665 670 676 684 685 692 695 696 699 702 712 727 735 747 768 815 852 887 935 983 1014 1029 1029 1025 1028 1044 1048 1072 1106 1224 1353 1443 1612 1591 1422 1291 1258 1285 1297 1307 1309 1317 1371 1506 1678 1661 1532 1492 1488 1482 1464 1462 1452 1431 1427 1428 1420 1406 1402 1395 1416 1425 1405 1395 1392 1401 1429 1490 1614 1787 1743 1589 1453 1345 1242 1155 1153 1150 1160 1240 1327 1277 1277 1306 1339 1368 1348 1257 1174 1122 1076 1036 979 864 780 766 762 746 739 732 738 728 718 706 691 680 670 653 633 620 601 570 532 512 483 471 458 445 430 415 416 410 406 453 575 621 648 677 766 739 710 728 761 808 824 767 653 588 496 364 248 206 178 169 164 151 151 127 94 95 62 43 45 19 24 12 6 12 21 17 28 20
227 242 253 289 311 332 363 389 419 430 444 456 478 496 508 530 552 577 602 617 641 664 681 704 729 747 748 803 850 862 856 854 830 835 837 824 812 794 785 791 803 808 798 790 791 799 813 830 826 834 842 841 862 883 923 958 1002 1041 1068 1088 1085 1065 1058 1075 1092 1108 1126 1207 1340 1438 1548 1604 1427 1302 1270 1294 1313 1319 1321 1333 1414 1549 1691 1558 1504 1501 1498 1480 1475 1464 1460 1447 1448 1441 1432 1419 1422 1423 1456 1433 1423 1412 1395 1400 1464 1513 1612 1748 1703 1581 1442 1318 1213 1172 1170 1173 1203 1350 1342 1318 1334 1351 1375 1374 1309 1219 1142 1097 1053 1011 953 856 795 777 770 765 751 748 746 734 720 707 690 682 673 654 643 625 602 577 551 515 489 468 454 438 418 404 394 392 386 387 504 634 695 738 704 638 640 694 798 792 710 632 565 437 351 257 203 176 148 135 153 139 106 87 60 64 47 31 29 7 11 4 4 3 3 3 3 7
284 306 343 372 390 420 425 471 487 501 517 531 550 560 601 635 656 674 702 727 750 776 794 809 841 886 910 931 953 967 1000 1008 1016 1019 1019 1001 993 945 930 944 959 974 972 969 947 953 948 950 946 954 932 930 935 955 996 1029 1071 1102 1154 1189 1130 1097 1087 1107 1119 1136 1153 1195 1328 1429 1500 1600 1417 1310 1284 1302 1320 1330 1341 1344 1448 1574 1648 1539 1509 1523 1513 1485 1479 1471 1468 1459 1454 1449 1443 1436 1438 1445 1493 1476 1459 1440 1436 1472 1529 1529 1610 1711 1665 1509 1366 1254 1193 1184 1181 1190 1234 1385 1356 1367 1396 1389 1425 1370 1265 1197 1160 1098 1054 1002 948 864 792 774 775 770 764 760 754 737 718 709 698 686 677 669 659 642 612 586 551 522 486 467 451 432 410 395 391 381 373 369 386 507 674 709 620 587 588 648 741 684 601 501 391 304 235 191 156 146 139 122 130 117 98 54 37 26 24 9 8 3 4 3 4 4 3 3 3 4
371 411 448 482 504 511 531 564 571 597 616 620 629 665 703 744 775 799 834 856 876 910 931 949 965 980 1000 1022 1034 1046 1057 1070 1085 1103 1113 1119 1125 1082 1104 1108 1130 1140 1133 1121 1108 1105 1096 1094 1075 1039 1007 1015 1016 1023 1057 1091 1136 1224 1281 1266 1176 1128 1116 1134 1145 1161 1180 1206 1252 1381 1510 1602 1417 1326 1301 1311 1338 1353 1358 1367 1447 1550 1656 1545 1538 1564 1560 1521 1485 1480 1467 1469 1465 1466 1463 1449 1450 1496 1527 1520 1512 1532 1563 1574 1559 1572 1658 1761 1641 1498 1353 1236 1198 1197 1198 1205 1249 1401 1401 1403 1419 1442 1448 1371 1254 1213 1186 1123 1060 991 936 853 796 778 780 774 766 757 763 753 745 748 727 702 692 681 668 654 626 597 551 525 484 459 431 416 406 392 382 377 367 361 347 411 554 584 558 553 556 640 596 496 436 352 259 204 164 145 140 135 122 129 108 94 67 33 17 13 9 3 5 5 2 4 4 2 3 3 4 4
471 527 555 580 616 630 650 661 658 689 716 701 719 767 820 841 903 933 939 952 984 1013 1025 1013 1027 1046 1063 1076 1085 1109 1122 1144 1153 1172 1209 1219 1224 1230 1254 1253 1237 1256 1260 1255 1249 1239 1233 1211 1124 1093 1072 1087 1088 1084 1099 1139 1245 1336 1435 1337 1221 1160 1144 1159 1172 1186 1193 1221 1249 1280 1422 1588 1438 1350 1333 1326 1354 1363 1369 1379 1426 1589 1590 1577 1613 1553 1502 1490 1492 1481 1476 1468 1468 1473 1469 1473 1479 1550 1567 1572 1589 1601 1612 1598 1588 1620 1699 1791 1654 1507 1353 1234 1218 1215 1209 1221 1270 1408 1431 1458 1507 1535 1440 1326 1281 1237 1197 1155 1072 980 927 861 816 790 780 775 773 773 773 776 793 799 730 706 701 688 672 650 630 598 555 529 493 464 420 395 393 382 374 370 363 353 342 320 436 506 536 486 488 485 419 345 279 225 188 155 133 135 124 111 105 81 70 61 32 26 14 8 10 1 1 2 4 5 4 3 0 3 5 5
600 651 693 725 739 757 756 770 763 793 822 833 872 906 935 966 986 1010 1018 1036 1065 1083 1091 1080 1089 1092 1117 1137 1158 1179 1192 1236 1282 1317 1355 1382 1356 1363 1367 1362 1332 1386 1398 1390 1393 1361 1367 1244 1167 1122 1131 1139 1137 1135 1140 1215 1322 1498 1503 1412 1269 1194 1168 1184 1199 1205 1217 1235 1253 1266 1351 1534 1461 1371 1347 1346 1370 1374 1381 1388 1435 1603 1615 1632 1642 1531 1505 1504 1497 1489 1481 1476 1479 1482 1488 1486 1509 1613 1617 1643 1682 1639 1633 1635 1648 1694 1742 1742 1590 1450 1323 1232 1234 1229 1228 1244 1296 1373 1499 1568 1632 1578 1432 1339 1309 1266 1214 1175 1081 995 953 882 831 789 786 791 792 789 793 819 866 772 724 708 701 691 676 653 622 584 556 538 508 471 417 376 362 367 359 361 360 349 333 315 288 374 423 372 329 308 253 214 184 173 148 130 122 121 122 109 97 76 42 24 15 19 15 3 3 3 5 5 4 4 0 1 5 1 5 4
750 813 848 871 884 908 912 929 954 962 966 1008 1045 1076 1071 1066 1075 1089 1110 1131 1148 1158 1147 1134 1155 1159 1186 1219 1267 1297 1335 1388 1421 1468 1507 1538 1437 1433 1427 1505 1461 1547 1554 1511 1532 1515 1403 1253 1184 1152 1171 1178 1174 1169 1171 1246 1409 1588 1583 1450 1306 1219 1187 1199 1218 1230 1241 1244 1263 1281 1324 1459 1490 1403 1365 1374 1387 1387 1389 1398 1452 1589 1684 1668 1584 1521 1515 1509 1504 1494 1487 1486 1486 1488 1486 1492 1518 1625 1694 1727 1683 1660 1668 1690 1727 1766 1805 1690 1537 1393 1277 1259 1254 1275 1322 1322 1360 1401 1566 1689 1604 1606 1456 1373 1343 1333 1292 1226 1121 1053 999 916 866 824 792 801 807 798 806 875 815 747 721 710 700 689 670 646 608 584 570 554 532 499 452 412 366 344 341 340 344 335 319 306 283 256 231 231 203 186 166 150 142 138 127 120 111 109 112 94 66 60 37 25 18 6 3 5 4 2 5 2 4 2 5 2 5 4 4 3
899 942 959 1003 1027 1057 1073 1082 1104 1102 1085 1161 1203 1216 1183 1167 1165 1182 1229 1291 1263 1211 1194 1212 1233 1239 1240 1317 1403 1396 1398 1493 1568 1592 1641 1597 1463 1463 1474 1588 1568 1619 1605 1543 1610 1617 1473 1275 1204 1201 1208 1207 1201 1200 1206 1283 1420 1656 1658 1518 1405 1277 1214 1215 1243 1253 1257 1265 1275 1300 1324 1373 1521 1466 1407 1397 1402 1398 1395 1408 1461 1605 1690 1579 1542 1532 1513 1514 1509 1505 1500 1500 1500 1492 1488 1497 1540 1588 1767 1755 1707 1693 1731 1747 1775 1862 1806 1653 1499 1350 1283 1275 1275 1362 1459 1448 1433 1506 1633 1626 1531 1601 1490 1429 1394 1387 1380 1233 1167 1134 1045 953 913 897 824 815 818 816 819 820 771 751 719 703 700 681 663 629 608 609 599 581 556 524 487 453 413 356 321 321 324 321 312 301 288 267 248 211 171 135 128 123 121 115 109 108 102 113 96 76 52 35 26 12 -5 3 4 2 8 2 6 4 6 1 3 1 4 2 4 3
994 1046 1100 1146 1183 1209 1233 1220 1234 1236 1190 1286 1328 1332 1242 1221 1224 1233 1326 1417 1326 1251 1226 1264 1274 1278 1282 1412 1562 1487 1451 1472 1651 1694 1757 1638 1511 1511 1523 1606 1682 1735 1644 1604 1685 1677 1498 1305 1225 1238 1236 1227 1226 1224 1222 1291 1450 1689 1681 1577 1473 1335 1252 1234 1264 1275 1276 1286 1296 1316 1334 1350 1421 1553 1427 1416 1413 1412 1406 1429 1513 1646 1617 1568 1546 1531 1530 1528 1520 1515 1510 1513 1511 1505 1492 1513 1568 1607 1696 1764 1743 1763 1785 1791 1812 1897 1782 1640 1492 1353 1301 1299 1324 1419 1574 1599 1568 1628 1692 1555 1484 1521 1484 1505 1469 1442 1389 1256 1210 1190 1091 984 940 907 846 825 827 821 815 792 776 752 718 703 691 673 647 614 633 658 604 590 574 552 523 490 459 403 294 302 310 307 297 300 279 266 245 226 199 181 115 111 117 112 106 106 86 107 81 63 63 28 29 14 5 5 4 3 5 1 5 3 5 5 4 0 1 6 4 5
1079 1138 1201 1264 1310 1337 1367 1372 1410 1378 1335 1431 1442 1367 1283 1251 1249 1273 1398 1519 1362 1281 1261 1301 1310 1314 1318 1407 1676 1614 1523 1516 1566 1738 1824 1718 1592 1572 1570 1621 1771 1802 1696 1711 1796 1668 1473 1313 1256 1268 1254 1248 1248 1245 1242 1315 1461 1701 1692 1612 1529 1418 1297 1254 1285 1292 1293 1304 1315 1328 1335 1346 1389 1530 1425 1446 1435 1427 1433 1458 1554 1670 1614 1574 1547 1537 1533 1531 1528 1521 1523 1526 1526 1521 1520 1565 1606 1633 1682 1816 1812 1816 1820 1814 1869 1879 1733 1594 1456 1392 1350 1342 1342 1408 1547 1720 1734 1663 1555 1456 1430 1435 1449 1573 1594 1542 1401 1285 1263 1233 1172 1050 980 905 870 836 834 827 812 795 776 749 706 681 672 654 621 634 699 634 603 593 583 567 552 528 496 427 297 294 293 297 287 279 282 252 233 234 208 189 162 108 108 118 109 102 96 86 60 56 51 49 36 13 1 3 5 5 9 4 3 4 1 4 5 3 6 2 3 5
1195 1248 1329 1413 1486 1498 1522 1548 1574 1528 1482 1553 1543 1391 1292 1264 1259 1293 1462 1554 1382 1307 1301 1328 1334 1344 1338 1390 1633 1686 1607 1586 1668 1777 1813 1748 1649 1620 1612 1709 1872 1829 1800 1865 1789 1626 1464 1321 1288 1281 1272 1266 1266 1259 1257 1345 1494 1709 1699 1657 1549 1469 1350 1277 1303 1313 1314 1319 1326 1332 1339 1344 1362 1509 1438 1459 1457 1447 1458 1499 1579 1671 1651 1602 1566 1544 1543 1542 1535 1532 1527 1533 1535 1534 1546 1656 1652 1666 1704 1851 1841 1845 1835 1854 1916 1813 1692 1552 1430 1454 1419 1385 1378 1440 1603 1658 1597 1530 1431 1367 1373 1382 1415 1514 1655 1608 1421 1329 1299 1267 1275 1144 1017 933 892 846 843 821 806 789 794 747 699 647 632 618 630 687 667 615 600 590 590 579 573 557 519 432 317 273 280 279 275 271 265 260 239 222 210 195 165 117 124 119 111 101 97 102 85 80 62 49 46 22 5 4 6 3 4 3 4 -4 7 2 6 4 3 1 2 4
1325 1390 1421 1473 1622 1654 1682 1748 1748 1653 1626 1666 1520 1389 1296 1262 1264 1306 1434 1583 1415 1318 1326 1345 1354 1362 1370 1372 1550 1710 1688 1676 1766 1876 1859 1725 1648 1651 1645 1737 1952 1900 1912 1946 1763 1599 1431 1303 1299 1293 1288 1281 1278 1272 1248 1347 1614 1723 1696 1681 1586 1479 1371 1301 1324 1330 1330 1333 1330 1333 1339 1336 1360 1471 1476 1472 1472 1479 1486 1544 1610 1738 1667 1623 1568 1567 1549 1548 1548 1537 1545 1545 1547 1552 1582 1675 1668 1699 1771 1852 1858 1856 1853 1880 1921 1846 1718 1586 1530 1544 1505 1491 1470 1562 1690 1597 1529 1475 1397 1360 1348 1360 1393 1552 1638 1674 1470 1364 1344 1356 1313 1228 1061 974 911 867 851 820 803 805 759 712 664 638 624 628 659 703 639 612 596 599 589 605 629 582 520 392 288 239 263 269 261 259 244 251 227 221 206 185 170 112 124 101 96 98 99 100 85 87 78 69 48 28 10 2 5 5 4 1 0 3 7 2 5 4 4 5 2 5
1423 1514 1490 1499 1588 1772 1842 1896 1842 1791 1768 1680 1501 1367 1274 1252 1265 1308 1411 1603 1441 1325 1342 1360 1369 1380 1385 1403 1461 1549 1630 1673 1700 1734 1804 1687 1671 1688 1682 1791 1922 1884 1768 1724 1665 1553 1377 1323 1309 1299 1295 1290 1286 1279 1250 1358 1675 1733 1683 1658 1584 1493 1374 1326 1345 1345 1343 1342 1346 1336 1336 1338 1364 1465 1504 1500 1487 1493 1518 1575 1669 1691 1654 1623 1574 1569 1556 1559 1551 1556 1553 1554 1553 1564 1586 1647 1668 1738 1815 1855 1861 1870 1865 1855 1775 1753 1730 1681 1618 1557 1575 1591 1583 1568 1523 1546 1522 1467 1409 1352 1329 1345 1399 1529 1590 1657 1603 1469 1451 1354 1331 1270 1153 1042 936 892 844 822 820 849 778 703 666 648 641 663 674 648 632 615 619 618 612 691 681 560 431 315 221 221 240 250 250 247 242 229 215 204 193 178 165 112 114 101 89 88 95 96 87 91 91 64 39 14 6 1 6 6 4 1 5 5 1 4 5 4 7 6 4 6
1496 1577 1542 1556 1589 1726 1902 2040 1982 1895 1731 1566 1439 1325 1266 1248 1261 1313 1448 1528 1443 1320 1341 1365 1377 1383 1396 1413 1438 1478 1532 1569 1607 1641 1679 1692 1715 1704 1771 1841 1765 1666 1581 1530 1505 1383 1357 1333 1321 1308 1301 1297 1289 1286 1268 1383 1629 1737 1667 1604 1535 1460 1366 1361 1369 1364 1368 1360 1355 1350 1355 1358 1396 1469 1544 1516 1512 1526 1557 1606 1707 1682 1649 1621 1587 1575 1571 1568 1564 1560 1554 1556 1558 1568 1583 1609 1639 1731 1816 1861 1868 1873 1830 1705 1625 1605 1553 1552 1471 1391 1425 1406 1394 1370 1342 1333 1380 1429 1413 1356 1321 1328 1397 1501 1579 1613 1680 1569 1508 1415 1380 1303 1242 1109 1003 902 853 889 929 935 843 756 675 668 678 700 666 663 653 661 710 673 673 641 514 413 309 224 173 209 221 225 228 226 229 220 207 198 183 174 151 105 105 96 85 98 99 101 86 87 86 58 33 20 1 10 5 4 3 2 3 -1 8 3 4 4 7 5 3 3
1545 1613 1594 1583 1587 1699 1841 1954 1958 1797 1640 1495 1385 1300 1268 1254 1267 1347 1446 1513 1433 1308 1339 1362 1375 1388 1403 1416 1436 1460 1503 1546 1568 1602 1660 1746 1723 1718 1735 1716 1647 1577 1539 1452 1421 1391 1371 1341 1328 1312 1303 1296 1292 1294 1269 1411 1648 1774 1700 1623 1498 1419 1371 1388 1388 1386 1373 1377 1381 1388 1384 1404 1421 1546 1592 1572 1543 1560 1576 1629 1722 1669 1641 1621 1593 1582 1576 1578 1571 1568 1564 1562 1562 1571 1582 1598 1636 1752 1827 1875 1889 1893 1746 1610 1501 1451 1405 1414 1341 1316 1299 1290 1268 1235 1212 1202 1226 1268 1356 1293 1298 1307 1398 1497 1552 1625 1752 1705 1606 1536 1499 1387 1336 1207 1026 881 756 772 781 776 863 782 695 686 718 679 659 678 738 760 700 626 607 473 365 286 222 178 136 183 193 208 211 217 217 204 191 185 174 160 143 101 107 90 86 99 113 100 93 85 81 57 26 19 12 4 4 5 5 5 5 2 1 7 3 5 3 3 5 2
1504 1695 1656 1616 1631 1683 1783 1923 1881 1707 1572 1446 1354 1273 1267 1263 1307 1405 1473 1512 1433 1303 1323 1348 1359 1389 1412 1429 1439 1461 1487 1518 1534 1599 1678 1720 1704 1701 1694 1667 1606 1546 1462 1436 1421 1398 1368 1337 1322 1311 1299 1298 1291 1304 1276 1421 1629 1797 1767 1646 1512 1418 1399 1408 1399 1397 1393 1397 1431 1424 1410 1419 1439 1480 1600 1650 1577 1606 1632 1718 1741 1658 1629 1612 1601 1590 1590 1580 1578 1576 1565 1571 1567 1576 1591 1615 1642 1750 1855 1905 1910 1919 1771 1610 1487 1419 1399 1375 1315 1291 1282 1263 1229 1197 1177 1156 1138 1155 1198 1209 1265 1273 1385 1469 1548 1677 1671 1604 1534 1504 1591 1524 1394 1237 1057 882 752 692 662 680 712 755 719 755 739 677 673 753 836 736 617 576 447 337 259 214 174 144 118 157 176 201 198 202 193 181 180 170 158 143 116 86 91 88 82 92 109 107 96 74 75 41 26 27 23 7 1 7 12 14 9 3 3 3 4 5 1 3 4 3
1493 1699 1743 1706 1705 1704 1796 1904 1798 1614 1493 1389 1288 1266 1264 1293 1370 1508 1553 1561 1441 1310 1304 1316 1316 1388 1421 1437 1453 1469 1490 1499 1518 1606 1700 1690 1693 1688 1679 1647 1590 1533 1459 1447 1428 1395 1369 1326 1314 1305 1299 1294 1287 1287 1284 1443 1634 1787 1790 1701 1589 1427 1418 1426 1425 1419 1419 1433 1482 1453 1425 1432 1442 1467 1518 1593 1618 1655 1722 1742 1667 1644 1626 1613 1602 1601 1589 1591 1586 1580 1565 1578 1581 1596 1617 1656 1709 1801 1904 1939 1922 1848 1750 1655 1539 1457 1407 1367 1322 1307 1284 1262 1239 1205 1166 1137 1108 1102 1097 1165 1219 1235 1319 1404 1474 1550 1546 1449 1403 1425 1497 1437 1379 1260 1099 927 772 698 654 621 575 578 612 681 750 683 635 663 657 624 520 411 310 234 198 169 142 111 93 130 156 174 179 176 174 169 164 154 140 123 68 65 73 71 75 97 109 117 99 90 71 48 28 28 20 13 21 31 55 51 36 17 1 5 1 4 5 2 3 4
1495 1651 1845 1764 1744 1762 1877 1872 1717 1544 1421 1326 1289 1268 1273 1327 1413 1579 1667 1607 1429 1320 1305 1292 1328 1431 1421 1444 1461 1477 1486 1505 1524 1548 1624 1670 1682 1662 1660 1631 1585 1548 1496 1457 1433 1426 1376 1293 1296 1295 1290 1286 1276 1276 1297 1439 1550 1697 1797 1758 1597 1447 1434 1441 1444 1438 1438 1459 1552 1471 1441 1440 1447 1461 1494 1554 1652 1743 1759 1672 1648 1633 1629 1616 1606 1602 1597 1591 1589 1580 1582 1588 1600 1622 1650 1677 1697 1763 1899 1877 1833 1707 1618 1540 1499 1453 1409 1382 1360 1331 1293 1264 1244 1221 1140 1129 1102 1075 1054 1078 1155 1187 1259 1243 1272 1288 1396 1325 1270 1277 1380 1351 1322 1296 1162 1019 882 732 653 602 558 517 498 594 702 617 570 532 484 446 358 276 210 174 159 136 116 87 74 74 135 145 156 149 158 151 144 128 113 73 53 58 62 69 77 89 104 111 110 102 81 80 51 32 30 49 66 75 80 70 55 39 20 3 10 5 4 3 3 6
1452 1623 1867 1852 1806 1828 1950 1822 1653 1506 1397 1313 1284 1263 1283 1337 1442 1594 1767 1580 1428 1332 1303 1295 1420 1477 1429 1429 1456 1477 1478 1505 1525 1544 1590 1636 1664 1656 1649 1626 1592 1559 1521 1497 1487 1470 1371 1286 1281 1280 1280 1273 1263 1245 1328 1439 1565 1674 1810 1739 1577 1470 1441 1445 1450 1458 1455 1477 1616 1511 1458 1457 1462 1475 1503 1563 1676 1795 1684 1646 1643 1635 1626 1618 1605 1604 1603 1601 1600 1598 1595 1598 1612 1623 1667 1684 1693 1756 1878 1839 1770 1671 1594 1528 1490 1435 1406 1388 1386 1357 1344 1307 1276 1250 1176 1110 1021 1001 983 1022 1034 1103 1070 1060 1078 1150 1235 1193 1128 1177 1284 1275 1271 1274 1255 1086 959 839 748 684 606 527 478 472 558 536 469 391 323 281 228 191 156 138 118 109 93 75 59 58 113 122 131 130 130 125 120 95 63 42 44 52 55 69 74 87 97 92 98 108 82 66 64 46 58 62 99 114 110 93 77 64 37 20 -1 2 3 4 3 3
1416 1547 1736 1850 1878 1855 1944 1816 1619 1478 1375 1299 1273 1260 1292 1354 1468 1658 1577 1494 1396 1314 1307 1328 1488 1503 1455 1423 1424 1450 1480 1498 1528 1557 1587 1606 1655 1645 1635 1626 1598 1571 1546 1568 1562 1531 1370 1282 1257 1267 1266 1256 1235 1254 1379 1499 1604 1715 1752 1598 1544 1486 1455 1458 1461 1469 1478 1488 1626 1568 1474 1473 1477 1491 1513 1580 1680 1717 1653 1644 1644 1635 1627 1616 1604 1607 1607 1612 1605 1595 1601 1604 1610 1628 1667 1701 1727 1783 1866 1799 1762 1675 1585 1519 1478 1446 1417 1409 1412 1406 1407 1371 1319 1287 1249 1136 1030 989 942 935 968 914 891 886 920 1030 1044 1046 1048 1066 1022 986 1182 1135 1190 1197 1068 981 901 759 662 543 490 432 419 418 339 266 223 189 160 136 115 100 84 68 60 54 47 47 60 92 100 98 94 88 77 34 37 43 42 51 73 83 86 79 82 81 89 91 91 78 68 52 67 82 103 130 129 119 100 86 59 44 27 2 6 4 2 2
1345 1467 1570 1612 1652 1883 1925 1784 1596 1462 1341 1296 1275 1276 1308 1390 1511 1520 1450 1385 1333 1306 1313 1369 1515 1518 1481 1439 1422 1425 1461 1493 1519 1549 1581 1596 1616 1629 1633 1622 1613 1580 1590 1594 1598 1572 1398 1270 1229 1246 1236 1215 1210 1305 1440 1629 1671 1746 1700 1625 1557 1504 1454 1468 1475 1481 1483 1509 1596 1609 1488 1491 1501 1508 1540 1623 1753 1679 1640 1646 1641 1631 1623 1611 1613 1623 1619 1619 1616 1613 1613 1610 1622 1639 1671 1734 1778 1820 1828 1774 1745 1680 1592 1541 1487 1476 1444 1426 1425 1434 1438 1399 1336 1318 1307 1193 1048 975 925 887 858 785 755 743 783 823 846 867 860 844 809 810 884 936 1030 1203 1107 1015 996 830 675 553 451 402 346 290 236 195 163 141 115 89 74 63 55 44 36 41 42 33 30 28 43 40 33 29 37 41 37 43 40 49 81 85 85 89 90 91 94 75 84 83 81 64 78 104 115 141 153 145 121 99 82 67 50 23 1 3 1 3
1323 1419 1481 1541 1574 1671 1852 1732 1570 1425 1336 1295 1275 1292 1356 1470 1547 1431 1371 1335 1318 1310 1344 1440 1542 1536 1505 1461 1431 1435 1461 1484 1505 1535 1568 1585 1600 1611 1615 1629 1618 1596 1603 1620 1624 1569 1393 1251 1215 1208 1204 1202 1249 1347 1476 1626 1741 1805 1740 1654 1610 1564 1477 1510 1501 1494 1502 1504 1575 1631 1505 1519 1517 1523 1561 1688 1728 1660 1649 1650 1641 1632 1620 1620 1625 1629 1623 1626 1626 1622 1621 1623 1625 1641 1681 1767 1799 1820 1812 1780 1719 1694 1632 1571 1525 1492 1462 1437 1441 1462 1453 1397 1361 1359 1364 1206 1033 941 864 837 815 781 751 702 663 676 694 687 694 664 626 686 727 833 827 972 956 856 810 754 641 479 374 313 274 233 183 148 124 91 74 57 54 42 29 30 32 36 46 31 37 33 39 34 32 36 36 41 40 43 38 54 75 82 94 94 94 112 109 105 103 100 76 85 87 112 138 143 172 168 151 128 116 100 82 60 32 0 3 4
1363 1414 1487 1527 1557 1578 1740 1715 1522 1381 1308 1273 1269 1302 1396 1547 1524 1398 1356 1321 1315 1331 1419 1547 1617 1573 1523 1474 1439 1436 1458 1471 1484 1523 1557 1580 1589 1603 1622 1654 1606 1603 1618 1629 1607 1463 1319 1245 1218 1216 1229 1221 1263 1361 1504 1681 1815 1886 1772 1740 1747 1619 1531 1530 1510 1506 1505 1516 1569 1661 1527 1534 1538 1546 1590 1718 1698 1658 1654 1657 1652 1650 1623 1632 1637 1629 1627 1626 1627 1628 1623 1633 1634 1658 1706 1761 1791 1806 1798 1778 1720 1687 1648 1589 1559 1510 1463 1449 1467 1492 1456 1388 1379 1400 1377 1206 1049 922 862 832 799 761 697 618 619 617 581 520 515 501 472 505 546 651 718 793 803 709 639 616 542 403 298 234 205 167 142 111 82 65 50 48 32 33 25 30 31 31 31 25 25 30 29 29 44 38 39 34 37 41 33 45 59 84 91 96 100 107 115 120 112 111 93 102 102 117 139 157 177 190 184 175 159 132 115 92 75 31 0 3
1363 1417 1451 1505 1549 1593 1675 1684 1464 1345 1296 1262 1270 1325 1448 1679 1505 1396 1353 1323 1323 1372 1487 1620 1710 1614 1530 1487 1453 1454 1460 1468 1477 1517 1548 1563 1578 1599 1639 1665 1609 1638 1627 1597 1516 1379 1286 1244 1232 1251 1254 1243 1236 1340 1486 1658 1804 1891 1813 1822 1726 1616 1559 1539 1523 1509 1509 1530 1573 1701 1572 1560 1559 1570 1622 1749 1681 1666 1670 1657 1740 1713 1643 1651 1635 1633 1634 1636 1636 1636 1630 1621 1655 1670 1703 1737 1772 1784 1782 1763 1725 1686 1642 1614 1572 1547 1485 1485 1493 1550 1467 1388 1407 1436 1372 1196 1038 918 856 855 827 753 677 629 624 607 558 480 414 377 347 366 419 483 662 631 629 562 498 455 406 303 224 175 150 125 91 77 58 51 40 27 29 21 20 21 25 24 37 23 22 24 20 31 33 38 38 37 32 42 39 49 53 77 86 99 103 107 117 119 120 128 112 126 117 131 135 170 191 206 212 204 188 161 150 123 104 69 31 2
1389 1484 1484 1514 1536 1577 1689 1663 1433 1325 1282 1267 1275 1347 1486 1660 1464 1387 1343 1333 1342 1430 1549 1730 1757 1653 1532 1500 1460 1460 1462 1467 1480 1516 1542 1557 1568 1612 1656 1662 1637 1654 1614 1585 1476 1343 1272 1254 1278 1328 1283 1266 1238 1306 1423 1568 1735 1875 1858 1716 1626 1580 1561 1542 1521 1514 1517 1536 1608 1745 1622 1583 1578 1586 1661 1776 1691 1680 1676 1714 1831 1709 1670 1655 1648 1640 1639 1642 1645 1651 1648 1645 1651 1666 1697 1718 1751 1770 1769 1768 1751 1674 1649 1635 1578 1538 1499 1502 1525 1578 1453 1410 1419 1451 1421 1215 1079 968 923 939 936 857 741 665 622 591 538 479 401 352 308 308 313 366 542 481 469 401 354 321 262 215 164 132 106 86 63 53 43 38 27 19 16 19 21 25 23 22 19 19 23 25 25 27 28 40 34 38 32 35 49 53 57 58 81 91 101 107 114 127 127 134 131 128 139 138 152 175 187 199 224 231 209 193 179 151 121 98 60 26
1453 1574 1593 1573 1569 1592 1743 1645 1435 1318 1292 1281 1289 1374 1508 1609 1435 1368 1344 1343 1403 1488 1601 1752 1826 1677 1558 1500 1479 1465 1474 1486 1492 1514 1533 1552 1567 1600 1660 1686 1672 1650 1614 1596 1474 1334 1290 1283 1357 1420 1323 1282 1258 1280 1400 1518 1674 1759 1807 1664 1603 1564 1553 1539 1528 1523 1525 1550 1645 1740 1637 1593 1596 1615 1715 1821 1721 1727 1719 1846 1829 1675 1673 1653 1650 1646 1648 1654 1653 1658 1654 1656 1665 1684 1702 1718 1728 1755 1769 1776 1756 1700 1660 1650 1597 1534 1514 1515 1536 1629 1485 1444 1450 1473 1440 1283 1149 1070 1011 994 1052 949 877 816 718 594 412 360 349 333 318 294 288 285 410 334 311 277 243 223 187 155 122 94 76 59 49 37 35 26 25 22 21 20 20 21 21 19 17 19 19 24 22 26 24 45 34 38 42 44 47 53 58 63 82 93 104 113 129 136 142 146 147 143 155 156 169 181 203 206 212 223 224 224 210 189 156 123 88 55
1497 1648 1755 1652 1606 1625 1777 1602 1431 1326 1308 1299 1307 1415 1581 1575 1416 1365 1359 1362 1415 1532 1643 1792 1857 1708 1570 1499 1487 1471 1494 1505 1506 1517 1532 1556 1569 1606 1670 1770 1677 1640 1621 1576 1476 1339 1307 1323 1439 1498 1382 1308 1282 1290 1382 1517 1652 1705 1730 1610 1571 1550 1548 1533 1535 1534 1540 1565 1698 1758 1688 1608 1614 1653 1793 1919 1799 1762 1749 1780 1711 1682 1675 1660 1653 1650 1651 1657 1656 1659 1667 1670 1667 1686 1702 1717 1734 1748 1760 1793 1773 1765 1736 1679 1600 1539 1525 1529 1572 1679 1571 1511 1495 1521 1469 1354 1253 1198 1095 1084 1158 1068 1009 885 775 613 420 334 333 328 312 304 282 273 254 241 211 186 173 157 134 116 89 66 56 42 34 32 21 17 20 16 21 20 21 20 20 17 27 21 20 18 27 19 31 38 40 44 42 52 51 59 58 72 83 96 113 124 140 158 169 172 172 173 175 177 203 202 215 232 230 243 243 246 233 219 190 165 127 84
1495 1680 1827 1753 1661 1696 1762 1584 1417 1335 1321 1317 1349 1474 1681 1541 1411 1386 1377 1376 1435 1552 1696 1877 1882 1726 1595 1505 1501 1489 1515 1525 1516 1519 1528 1550 1566 1602 1651 1735 1645 1622 1599 1544 1489 1346 1328 1367 1507 1565 1434 1337 1313 1307 1374 1488 1607 1618 1605 1568 1556 1541 1533 1520 1534 1550 1555 1572 1607 1737 1731 1640 1661 1691 1807 1864 1851 1835 1802 1733 1705 1683 1667 1669 1659 1655 1654 1653 1659 1656 1664 1666 1683 1704 1708 1702 1736 1745 1762 1796 1805 1811 1813 1688 1598 1546 1535 1549 1603 1734 1648 1586 1593 1586 1461 1443 1387 1315 1190 1188 1275 1153 1025 964 811 643 486 327 317 312 305 295 284 266 249 216 190 146 126 113 100 90 70 54 38 31 29 21 20 21 22 23 20 19 20 20 21 20 22 19 21 22 26 29 33 36 43 53 59 63 62 70 71 90 93 100 114 133 149 165 181 204 215 203 200 205 219 232 244 255 261 261 259 258 253 240 223 200 164 128
1429 1597 1774 1769 1711 1731 1750 1565 1417 1355 1328 1337 1383 1525 1710 1538 1432 1414 1401 1394 1447 1570 1725 1909 1796 1681 1572 1515 1508 1503 1533 1536 1528 1520 1523 1538 1558 1591 1643 1672 1630 1608 1577 1553 1480 1357 1348 1428 1561 1611 1477 1374 1344 1326 1370 1457 1529 1566 1568 1555 1541 1533 1503 1509 1523 1550 1564 1586 1615 1746 1767 1720 1725 1750 1807 1830 1838 1854 1743 1708 1692 1675 1667 1667 1659 1664 1662 1662 1661 1665 1670 1679 1708 1719 1722 1722 1732 1744 1765 1804 1824 1834 1814 1696 1597 1554 1548 1569 1628 1768 1694 1629 1651 1625 1499 1484 1420 1358 1264 1269 1310 1053 1059 996 827 674 547 422 299 288 275 284 280 269 248 226 169 126 97 79 75 57 59 53 33 22 20 21 20 21 20 20 21 18 21 21 22 27 20 23 24 32 43 47 53 56 69 84 89 93 91 86 92 100 111 114 131 139 159 172 188 204 225 231 239 232 253 269 280 291 287 284 281 273 266 258 236 220 197 161
1411 1535 1697 1765 1754 1787 1781 1588 1453 1372 1348 1368 1421 1582 1740 1556 1455 1423 1414 1416 1477 1586 1743 1828 1728 1616 1554 1526 1519 1526 1558 1542 1537 1535 1529 1539 1562 1589 1625 1626 1606 1592 1580 1565 1463 1375 1371 1491 1570 1661 1524 1398 1369 1350 1378 1440 1510 1559 1553 1545 1534 1516 1466 1488 1500 1544 1612 1622 1623 1709 1759 1774 1788 1798 1796 1809 1784 1753 1718 1696 1690 1678 1674 1667 1666 1663 1668 1669 1672 1686 1701 1715 1730 1728 1730 1740 1742 1741 1767 1809 1819 1819 1789 1697 1611 1566 1568 1581 1633 1776 1714 1702 1697 1628 1511 1536 1481 1426 1329 1240 1024 858 768 711 676 606 544 440 321 241 247 271 269 259 242 227 160 95 77 70 63 56 53 47 23 20 21 19 19 20 21 19 27 27 20 21 19 28 31 37 35 48 56 59 64 79 85 107 109 103 95 100 107 111 117 127 140 155 185 201 214 223 241 262 272 284 291 307 321 330 330 323 307 304 292 285 274 252 231 195
1415 1524 1685 1824 1826 1909 1806 1652 1479 1397 1390 1435 1491 1623 1815 1619 1474 1436 1406 1470 1555 1676 1800 1772 1654 1580 1553 1539 1535 1553 1565 1560 1546 1542 1541 1548 1576 1604 1639 1596 1586 1583 1577 1532 1439 1407 1420 1509 1608 1644 1589 1474 1388 1377 1393 1454 1510 1515 1537 1540 1539 1445 1447 1458 1511 1650 1644 1629 1634 1736 1810 1855 1796 1788 1765 1757 1746 1730 1715 1698 1696 1679 1673 1669 1666 1671 1672 1674 1691 1707 1732 1740 1748 1744 1741 1738 1739 1742 1789 1769 1787 1775 1763 1710 1657 1584 1576 1619 1692 1801 1792 1795 1757 1616 1535 1634 1570 1433 1294 1055 886 738 620 558 495 425 371 271 198 202 238 254 255 249 239 216 194 143 66 63 59 54 36 23 20 19 20 21 22 20 20 19 22 20 19 18 31 28 38 40 42 55 67 76 90 87 95 106 103 102 110 112 110 125 133 142 160 177 205 240 251 260 278 298 308 318 332 346 355 362 363 359 355 352 338 327 325 303 276 235
1437 1531 1653 1875 1956 2006 1825 1665 1524 1454 1461 1553 1626 1709 1797 1639 1504 1478 1454 1515 1641 1797 1845 1704 1611 1584 1565 1555 1559 1620 1584 1563 1560 1548 1545 1552 1595 1670 1626 1588 1574 1567 1569 1496 1443 1439 1471 1522 1609 1636 1615 1520 1410 1421 1405 1448 1529 1509 1540 1558 1538 1419 1441 1471 1584 1723 1659 1630 1643 1742 1929 1878 1795 1761 1748 1747 1742 1724 1716 1703 1693 1680 1670 1662 1667 1675 1676 1697 1705 1729 1747 1762 1769 1751 1743 1736 1715 1667 1585 1586 1667 1641 1618 1615 1604 1549 1614 1697 1715 1780 1710 1694 1531 1508 1484 1465 1366 1249 1008 863 740 612 525 479 374 294 219 166 166 205 232 237 240 236 228 215 193 161 134 78 61 53 23 19 21 20 19 21 20 21 20 21 20 22 18 31 37 42 39 39 51 59 73 82 86 95 99 107 100 104 108 122 129 136 152 169 179 207 228 252 287 295 312 327 348 352 360 371 385 389 393 393 390 386 387 391 390 362 325 277
1481 1535 1685 1777 2121 2016 1855 1707 1578 1486 1494 1549 1726 1849 1757 1650 1535 1520 1508 1556 1708 1864 1805 1661 1607 1608 1583 1580 1644 1674 1634 1575 1575 1558 1554 1560 1613 1672 1605 1577 1572 1551 1532 1481 1462 1462 1488 1552 1662 1673 1632 1559 1457 1443 1426 1466 1563 1529 1562 1598 1514 1429 1474 1560 1689 1715 1669 1652 1666 1838 1891 1821 1771 1759 1753 1746 1733 1721 1711 1701 1694 1679 1675 1666 1681 1678 1699 1712 1721 1747 1765 1776 1771 1763 1748 1722 1621 1509 1443 1450 1500 1502 1470 1474 1448 1453 1554 1702 1780 1686 1591 1567 1357 1286 1226 1121 1173 1065 1001 789 636 519 452 376 290 204 138 129 171 202 219 224 222 222 216 204 185 162 138 108 25 21 20 20 20 19 21 20 20 19 21 24 24 23 25 40 57 53 58 57 56 68 80 86 89 97 105 105 103 104 112 125 139 152 172 188 212 244 282 303 324 348 367 380 406 427 421 436 445 459 463 462 451 449 454 464 455 429 380 323
1529 1558 1701 1875 2188 2043 1882 1759 1619 1517 1516 1564 1739 1815 1743 1676 1590 1554 1560 1590 1740 1914 1779 1632 1625 1628 1591 1676 1738 1705 1662 1596 1589 1586 1558 1580 1654 1627 1599 1592 1568 1539 1505 1485 1481 1492 1539 1615 1732 1704 1669 1557 1500 1480 1458 1480 1573 1569 1597 1654 1538 1471 1537 1646 1741 1764 1699 1673 1692 1899 1870 1786 1767 1766 1757 1744 1723 1711 1713 1694 1675 1662 1667 1703 1693 1698 1712 1718 1738 1763 1783 1774 1767 1751 1752 1677 1525 1394 1327 1333 1356 1364 1345 1340 1362 1384 1516 1673 1598 1623 1525 1420 1271 1071 1030 951 951 875 961 727 572 478 368 296 201 138 93 150 166 185 199 204 208 205 202 191 176 155 131 109 63 21 19 34 17 19 19 21 20 20 25 31 35 32 46 60 69 69 75 66 64 84 84 91 96 101 103 108 104 116 120 135 154 175 200 228 276 309 372 406 418 475 501 505 516 517 535 574 590 601 587 544 552 563 553 539 525 493 439 395
1578 1592 1721 1885 2097 2009 1855 1731 1630 1541 1547 1615 1713 1805 1797 1755 1651 1610 1631 1630 1773 1923 1745 1645 1654 1648 1638 1778 1784 1712 1686 1632 1588 1570 1575 1607 1675 1624 1621 1610 1556 1524 1508 1496 1502 1526 1590 1696 1797 1719 1619 1582 1533 1506 1489 1510 1604 1614 1651 1740 1597 1551 1603 1655 1802 1863 1772 1741 1760 1896 1829 1788 1775 1773 1761 1729 1716 1703 1696 1668 1683 1716 1802 1753 1721 1707 1713 1729 1760 1783 1789 1772 1748 1737 1756 1670 1480 1357 1290 1277 1281 1271 1254 1251 1293 1352 1554 1524 1401 1326 1294 1200 1067 920 840 789 770 724 747 622 468 369 270 212 131 89 78 122 150 168 183 193 189 189 185 179 166 150 128 107 58 27 23 31 25 22 17 19 22 22 33 39 46 52 61 77 85 92 88 82 85 86 95 92 102 104 103 110 118 130 137 158 181 209 238 289 365 457 536 558 550 606 646 612 597 596 679 727 745 727 680 619 651 717 715 703 640 577 516 480
1641 1592 1736 1908 2037 1938 1769 1652 1594 1571 1592 1633 1717 1813 1837 1750 1711 1709 1711 1684 1784 1919 1742 1685 1680 1658 1691 1845 1743 1695 1660 1612 1596 1607 1622 1688 1684 1663 1663 1624 1557 1531 1515 1506 1526 1592 1683 1810 1827 1687 1648 1615 1595 1569 1517 1552 1631 1634 1656 1739 1701 1598 1629 1702 1809 1959 1840 1787 1827 1936 1850 1795 1780 1776 1764 1712 1691 1665 1681 1745 1824 1842 1886 1822 1752 1699 1712 1738 1770 1791 1781 1741 1707 1670 1646 1675 1474 1377 1271 1264 1257 1241 1223 1226 1239 1323 1490 1290 1042 952 1017 926 808 776 691 635 613 577 548 508 369 254 188 121 81 78 77 89 134 152 164 175 174 175 173 166 152 135 121 101 32 30 27 31 40 32 26 29 34 46 52 59 62 64 80 88 90 100 99 96 93 90 100 103 100 105 109 111 123 135 152 182 218 263 305 389 498 572 688 670 654 664 685 667 649 663 761 885 846 783 742 676 679 741 832 815 738 648 595 499
1714 1664 1733 1873 2023 1878 1707 1637 1595 1605 1613 1641 1723 1865 1864 1745 1783 1871 1797 1754 1846 1941 1786 1728 1719 1672 1767 1808 1733 1734 1679 1652 1640 1644 1688 1769 1713 1715 1691 1685 1623 1542 1526 1536 1590 1666 1770 1866 1753 1730 1720 1694 1666 1637 1582 1629 1642 1639 1652 1715 1775 1658 1721 1795 1926 2054 1893 1840 1914 1950 1857 1797 1783 1776 1741 1693 1660 1663 1662 1677 1732 1787 1698 1726 1728 1680 1704 1734 1793 1787 1738 1675 1579 1557 1555 1596 1454 1351 1284 1271 1257 1231 1210 1196 1196 1272 1169 939 830 817 906 726 671 628 569 509 469 428 382 337 257 172 91 79 77 78 78 75 115 138 152 156 157 161 156 151 139 122 97 68 52 45 36 43 48 42 43 49 56 67 75 81 82 88 94 99 103 109 106 107 95 105 102 104 104 109 116 120 128 156 183 211 255 310 393 481 636 695 778 733 704 711 720 707 691 708 780 904 854 826 791 738 706 759 802 788 720 688 603 433
1774 1781 1798 1893 2025 1876 1757 1687 1620 1634 1636 1677 1808 1869 1881 1805 1814 1872 1842 1848 1944 1983 1823 1806 1751 1750 1851 1789 1735 1791 1785 1775 1763 1723 1793 1859 1759 1745 1717 1791 1644 1578 1560 1608 1657 1751 1879 1875 1783 1761 1727 1703 1765 1766 1679 1655 1655 1651 1673 1769 1881 1778 1803 1852 1861 1847 1873 1933 2015 1924 1856 1807 1820 1794 1709 1648 1656 1665 1658 1646 1643 1634 1647 1656 1646 1656 1694 1762 1829 1759 1684 1608 1551 1530 1512 1456 1418 1370 1289 1268 1239 1223 1196 1158 1135 1174 904 783 685 658 681 577 506 460 411 400 411 333 261 192 136 77 78 78 78 77 79 79 77 110 131 133 142 144 141 130 116 95 60 46 56 59 62 58 57 60 60 68 84 94 93 99 95 102 108 110 115 116 115 114 104 106 108 110 112 123 128 136 161 191 221 279 336 419 536 615 749 857 817 793 763 750 749 735 729 742 809 897 873 866 856 844 801 796 795 778 742 725 630 472
1732 1777 1846 1874 1987 1899 1867 1747 1701 1687 1694 1750 1814 1794 1832 1845 1799 1814 1872 2020 2086 2057 1872 1868 1831 1875 1842 1758 1747 1836 1913 1915 1887 1826 1900 1860 1812 1755 1751 1779 1666 1613 1603 1661 1768 1836 1966 1975 1922 1836 1777 1835 1916 1828 1756 1726 1713 1694 1769 1869 1996 1918 1827 1757 1681 1678 1732 1734 1774 1908 1835 1848 1864 1761 1699 1682 1668 1657 1640 1597 1597 1597 1625 1621 1611 1634 1684 1768 1718 1690 1653 1585 1537 1519 1478 1449 1440 1391 1315 1284 1238 1210 1180 1123 1055 980 794 642 578 550 495 430 414 369 318 271 250 230 180 111 78 79 77 82 78 79 76 78 77 75 82 106 97 95 102 90 72 68 68 91 72 71 68 66 82 78 70 83 91 100 108 106 114 116 126 123 126 138 129 113 112 111 117 119 120 130 147 163 195 240 289 380 464 555 653 768 819 871 841 826 812 797 763 750 747 770 884 939 877 880 915 964 887 821 781 772 764 760 631 468
1713 1732 1765 1797 1859 1748 1757 1739 1743 1752 1747 1731 1741 1745 1751 1751 1760 1779 1799 1991 2066 2063 1927 1923 1993 1986 1830 1770 1774 1867 1941 1829 1767 1740 1757 1730 1741 1838 1837 1814 1737 1659 1663 1689 1774 1895 1832 1823 1835 1872 1869 1988 2043 1880 1801 1741 1736 1732 1859 1956 1882 1817 1723 1608 1580 1569 1583 1576 1618 1754 1825 1892 1906 1774 1733 1731 1665 1628 1635 1575 1573 1586 1577 1575 1585 1616 1663 1679 1623 1613 1623 1629 1553 1509 1465 1455 1429 1390 1350 1311 1263 1212 1133 1021 937 781 676 540 511 471 410 347 313 274 219 182 150 111 86 78 78 76 90 101 108 127 132 110 110 105 115 119 127 111 110 97 91 93 99 103 84 78 85 92 94 88 84 96 109 119 121 119 127 130 145 131 134 128 126 124 122 123 126 131 144 162 174 187 234 302 399 537 618 635 747 820 875 878 874 860 875 811 757 749 753 765 826 861 853 844 852 863 827 775 743 747 758 693 533 395
1707 1718 1736 1753 1760 1733 1719 1705 1695 1694 1700 1704 1717 1725 1724 1734 1745 1766 1794 1865 1986 2046 1980 2009 2106 2034 1891 1842 1867 1886 1808 1743 1709 1685 1667 1658 1684 1711 1703 1683 1721 1742 1745 1738 1788 1741 1735 1739 1778 1841 1871 2002 2044 1987 1859 1816 1780 1785 1957 1875 1751 1671 1586 1534 1511 1512 1519 1519 1537 1565 1640 1722 1780 1809 1804 1757 1642 1632 1595 1580 1584 1564 1539 1559 1569 1597 1555 1532 1558 1572 1620 1699 1597 1457 1457 1429 1413 1383 1365 1318 1293 1166 1007 892 794 706 552 435 464 441 390 300 235 182 138 99 81 78 77 78 76 85 111 125 160 190 254 179 158 146 155 154 152 141 129 124 122 127 117 114 114 122 118 126 133 118 110 107 128 135 132 136 136 137 138 137 136 133 126 126 129 135 149 157 174 184 204 235 284 389 523 666 714 712 773 838 890 901 905 920 884 793 753 741 741 748 767 815 829 829 814 797 758 737 728 722 721 712 544 388
1701 1713 1720 1729 1743 1716 1706 1692 1682 1677 1686 1688 1696 1705 1715 1725 1745 1758 1780 1837 1982 2028 2018 2061 2133 2071 1977 1921 1852 1775 1725 1700 1693 1671 1644 1642 1650 1647 1636 1624 1640 1660 1749 1700 1655 1682 1698 1717 1751 1844 1963 2024 2063 2063 1982 1962 1882 1905 1994 1839 1711 1607 1528 1491 1488 1493 1505 1493 1518 1541 1567 1595 1619 1634 1726 1715 1640 1614 1608 1580 1558 1546 1539 1534 1536 1519 1475 1493 1524 1546 1615 1744 1612 1459 1445 1424 1406 1381 1366 1383 1295 1077 860 757 661 576 457 353 303 351 317 221 161 114 82 77 77 80 92 92 104 121 137 174 200 254 328 268 204 168 163 160 154 154 155 149 155 151 150 149 146 149 156 148 152 143 137 133 142 140 144 152 144 150 142 150 142 139 141 144 145 157 164 169 185 195 220 264 362 538 624 721 794 778 808 905 935 941 957 905 824 773 741 730 724 729 749 805 823 825 795 774 767 735 716 700 694 729 567 361
1697 1704 1710 1708 1722 1700 1694 1684 1674 1675 1675 1681 1690 1701 1712 1715 1734 1748 1793 1885 1982 2041 2071 2118 2145 2000 2009 1864 1788 1740 1707 1694 1684 1631 1629 1630 1632 1630 1609 1611 1602 1606 1625 1611 1626 1662 1688 1720 1742 1766 1963 2043 2079 2072 2076 2096 2086 2015 1939 1791 1667 1564 1512 1480 1474 1480 1482 1491 1508 1519 1521 1546 1575 1585 1620 1715 1605 1603 1581 1569 1550 1539 1535 1527 1502 1473 1465 1472 1495 1536 1631 1720 1576 1472 1461 1449 1469 1467 1459 1325 1141 919 727 618 532 435 338 297 242 211 165 100 79 78 77 87 106 121 136 140 154 176 209 236 285 341 336 278 235 208 202 190 185 175 171 172 174 167 173 170 171 175 170 169 176 163 152 146 146 157 155 159 154 156 161 156 155 155 161 162 161 169 174 199 217 227 245 296 455 542 595 668 769 797 833 886 949 971 971 885 823 777 722 710 707 712 725 790 822 822 794 782 757 722 699 676 657 696 507 338
1695 1698 1698 1696 1703 1701 1687 1671 1671 1671 1670 1677 1684 1692 1713 1719 1731 1747 1820 1953 1997 2051 2074 2079 2096 1973 1912 1840 1764 1714 1695 1692 1709 1632 1636 1636 1631 1622 1609 1597 1593 1590 1588 1573 1604 1638 1674 1710 1727 1710 1982 2049 2068 2096 2113 2104 2089 1896 1765 1705 1666 1592 1510 1468 1466 1465 1465 1471 1484 1489 1515 1531 1535 1557 1601 1728 1658 1680 1648 1542 1531 1492 1500 1511 1483 1452 1460 1457 1487 1530 1644 1678 1616 1535 1506 1553 1616 1554 1404 1189 1027 828 623 492 414 340 241 263 222 162 114 77 81 92 117 142 146 170 184 206 243 295 335 387 416 367 362 317 268 244 226 213 203 197 193 193 184 190 190 186 199 193 195 198 194 175 163 153 164 161 168 172 167 169 173 168 169 163 172 169 174 190 214 247 274 299 321 351 447 533 612 665 744 806 846 861 885 886 875 835 776 736 690 683 681 686 704 779 819 817 795 783 746 712 681 641 585 572 449 273
1679 1670 1674 1660 1668 1687 1656 1661 1657 1662 1659 1672 1686 1698 1716 1723 1728 1744 1767 1918 1975 2054 2059 2049 2011 1928 1893 1798 1735 1707 1686 1668 1669 1651 1641 1640 1631 1619 1606 1604 1595 1581 1582 1568 1569 1590 1644 1682 1684 1870 1961 2010 2038 2091 2093 2103 2095 1962 1777 1710 1660 1599 1495 1460 1455 1454 1450 1455 1455 1458 1478 1493 1511 1538 1629 1800 1732 1714 1758 1597 1517 1484 1471 1489 1468 1447 1446 1434 1477 1548 1662 1681 1639 1590 1587 1684 1608 1430 1147 937 785 651 495 393 297 245 226 204 200 180 127 121 148 180 201 244 296 291 344 375 421 444 441 430 421 402 368 335 309 288 271 257 242 239 229 225 217 216 221 227 231 226 222 218 198 181 180 171 175 184 178 179 180 176 176 175 181 175 175 185 191 221 266 338 440 457 428 468 511 578 645 704 764 832 851 855 849 837 804 764 726 703 673 659 643 651 671 807 825 832 829 776 728 681 637 582 484 373 337 177
1631 1644 1619 1621 1630 1659 1649 1651 1648 1649 1647 1661 1680 1700 1722 1721 1717 1723 1760 1843 1975 2047 2036 2004 1924 1835 1794 1763 1742 1706 1681 1682 1674 1666 1654 1634 1618 1605 1593 1588 1592 1581 1574 1568 1564 1558 1594 1642 1675 1770 1897 1914 1962 2032 2075 2104 2116 2051 1809 1702 1656 1568 1471 1437 1434 1435 1439 1437 1435 1438 1452 1466 1484 1512 1659 1632 1536 1531 1592 1630 1554 1486 1482 1477 1434 1424 1441 1442 1472 1556 1755 1761 1710 1662 1691 1573 1458 1314 1005 835 651 527 392 309 230 167 194 191 189 160 176 210 228 266 296 410 437 430 481 496 494 459 406 390 391 398 374 368 342 324 310 293 281 276 271 260 250 255 252 252 254 248 238 235 222 208 201 188 187 183 180 181 187 191 191 183 183 179 190 199 239 283 357 470 598 634 557 554 578 631 692 766 810 851 849 850 833 821 790 747 713 691 653 628 608 603 615 748 890 867 794 771 719 660 577 510 468 305 179 77
1608 1608 1610 1613 1617 1622 1642 1646 1638 1637 1636 1628 1639 1679 1704 1698 1704 1712 1752 1822 1984 2008 1991 1923 1851 1812 1786 1769 1749 1705 1681 1682 1671 1667 1639 1605 1596 1587 1590 1592 1584 1580 1568 1566 1557 1557 1555 1594 1640 1669 1659 1657 1736 1783 1979 2073 2103 2053 1844 1712 1597 1514 1443 1417 1416 1423 1434 1428 1426 1425 1443 1457 1461 1505 1591 1442 1433 1467 1503 1571 1562 1487 1464 1462 1427 1408 1439 1428 1451 1560 1703 1798 1747 1750 1625 1381 1173 1146 920 739 547 447 339 252 204 138 153 169 154 229 295 292 335 329 382 501 503 508 530 517 511 471 404 380 368 361 349 366 364 350 336 319 308 300 294 294 285 281 274 272 273 275 272 244 228 225 211 205 195 195 196 199 206 195 198 198 190 202 219 250 290 370 465 603 699 691 660 625 628 687 737 822 883 864 848 835 823 809 776 735 697 660 627 601 571 542 550 676 746 724 647 612 574 572 492 407 344 260 107 1
1604 1603 1607 1606 1606 1619 1642 1638 1626 1627 1618 1618 1626 1660 1670 1671 1678 1692 1726 1786 1853 1943 1917 1883 1834 1813 1789 1773 1759 1728 1689 1683 1692 1679 1606 1592 1587 1582 1584 1582 1581 1575 1562 1552 1545 1546 1548 1574 1598 1582 1551 1594 1647 1683 1759 2055 2074 1972 1762 1644 1605 1503 1416 1409 1411 1414 1418 1412 1406 1418 1431 1442 1458 1526 1434 1380 1405 1437 1481 1530 1608 1487 1457 1444 1403 1400 1398 1414 1398 1520 1685 1829 1835 1775 1540 1299 1087 962 824 662 491 380 287 204 143 120 116 160 207 266 350 441 434 420 470 537 540 535 505 507 501 473 405 373 357 350 338 341 348 360 351 337 325 326 324 317 310 307 296 295 294 296 287 271 255 233 227 221 214 215 212 215 222 217 206 212 216 235 269 313 391 483 590 710 764 754 729 703 711 737 761 792 832 863 844 821 803 802 771 727 667 629 598 545 510 476 462 572 578 555 497 433 419 388 358 279 242 104 4 4
1597 1601 1599 1598 1601 1606 1637 1627 1622 1618 1604 1605 1616 1633 1629 1630 1651 1677 1703 1761 1790 1827 1885 1861 1798 1780 1784 1797 1790 1769 1742 1726 1722 1729 1618 1570 1572 1578 1576 1571 1572 1558 1538 1531 1530 1538 1536 1541 1540 1511 1501 1530 1613 1644 1777 1993 2019 1833 1747 1630 1566 1485 1430 1411 1404 1398 1402 1399 1393 1401 1401 1421 1411 1493 1354 1343 1381 1424 1447 1481 1566 1517 1470 1429 1405 1394 1394 1394 1380 1383 1587 1714 1757 1531 1223 1145 986 824 720 583 414 308 215 165 134 116 147 201 250 315 405 488 480 479 531 544 533 515 504 474 449 440 386 358 346 343 341 329 336 333 349 354 360 366 373 363 348 326 324 325 324 314 295 282 264 257 249 241 229 228 228 237 238 226 221 230 262 295 366 443 533 631 717 798 806 798 791 777 757 757 761 771 788 861 822 805 810 794 743 684 576 500 462 423 397 405 368 408 433 392 338 283 248 228 214 165 74 4 3 2
1590 1589 1592 1587 1593 1602 1635 1607 1601 1585 1579 1592 1603 1592 1593 1605 1633 1647 1676 1724 1753 1814 1900 1869 1826 1807 1835 1847 1826 1812 1810 1744 1774 1757 1664 1592 1596 1578 1559 1551 1545 1530 1516 1512 1512 1521 1515 1505 1489 1484 1493 1506 1540 1611 1781 1932 1937 1778 1664 1589 1548 1507 1443 1407 1383 1382 1391 1390 1378 1368 1362 1362 1363 1393 1359 1353 1365 1386 1423 1454 1522 1507 1481 1440 1403 1389 1380 1386 1374 1384 1420 1506 1388 1242 1029 947 824 700 631 498 360 258 179 115 109 134 186 234 292 356 422 491 482 488 536 538 526 507 500 476 444 396 369 356 351 341 331 335 343 343 358 374 376 384 386 369 361 347 344 338 333 323 295 285 276 280 278 264 250 248 253 266 266 260 251 269 331 409 501 591 679 779 832 829 833 828 820 810 780 766 753 747 758 801 819 821 809 758 684 607 528 391 327 297 279 302 259 256 265 242 212 163 136 129 119 56 -1 4 1 4
1583 1583 1577 1577 1579 1569 1611 1586 1584 1565 1557 1573 1553 1530 1569 1577 1595 1603 1637 1688 1724 1799 1913 2000 1951 1958 1909 1872 1844 1819 1786 1785 1787 1646 1604 1620 1627 1598 1538 1514 1507 1510 1507 1502 1500 1503 1497 1482 1475 1482 1479 1481 1501 1591 1676 1746 1664 1728 1635 1594 1559 1501 1429 1377 1359 1362 1373 1376 1368 1366 1361 1347 1338 1337 1344 1346 1349 1365 1391 1428 1463 1516 1492 1426 1395 1374 1363 1368 1367 1371 1416 1473 1184 1034 848 777 699 633 559 453 309 215 133 103 115 259 240 287 335 404 477 477 475 491 533 540 519 501 494 474 425 380 375 362 361 342 338 338 340 344 356 358 362 365 373 385 375 357 346 335 324 305 292 288 280 281 279 280 278 277 298 307 301 294 309 334 407 486 606 743 845 874 864 856 854 851 845 825 793 763 734 721 713 732 833 728 687 627 583 479 404 336 232 212 182 216 169 158 159 144 123 92 63 42 10 4 3 4 5 4
1575 1571 1557 1556 1551 1542 1562 1567 1557 1528 1536 1530 1480 1507 1539 1526 1534 1566 1639 1658 1742 1791 1923 1871 1808 1843 1907 1906 1849 1817 1820 1855 1781 1667 1646 1687 1667 1634 1532 1524 1511 1498 1488 1491 1487 1485 1483 1479 1474 1469 1466 1456 1462 1492 1580 1602 1564 1635 1638 1585 1603 1584 1512 1425 1373 1353 1354 1362 1360 1353 1349 1339 1324 1308 1310 1318 1336 1347 1370 1418 1475 1497 1439 1416 1392 1354 1338 1345 1342 1337 1374 1384 1049 842 749 685 626 544 500 402 294 200 103 101 166 266 280 352 389 460 498 488 507 545 584 548 513 495 489 462 416 388 372 375 365 353 345 347 345 346 355 362 367 370 370 369 367 365 349 334 321 302 293 290 288 284 289 305 319 363 397 402 367 366 385 420 473 536 592 725 897 896 871 871 872 868 869 842 799 753 716 684 671 669 695 614 518 477 416 357 261 184 135 104 87 80 59 37 31 15 2 4 3 3 5 3 5 3 6 6
1552 1534 1533 1530 1535 1531 1538 1550 1532 1506 1503 1486 1461 1471 1488 1510 1513 1566 1644 1687 1763 1811 1808 1727 1666 1694 1755 1957 1865 1844 1870 1862 1794 1752 1789 1776 1697 1641 1564 1541 1535 1503 1479 1480 1481 1481 1475 1463 1462 1458 1450 1436 1432 1416 1453 1442 1505 1563 1661 1651 1746 1734 1647 1520 1435 1380 1328 1337 1345 1339 1326 1314 1305 1305 1297 1295 1311 1322 1333 1378 1430 1490 1488 1469 1416 1341 1310 1305 1259 1259 1277 1105 884 734 698 658 562 513 454 364 328 214 102 116 179 240 318 411 449 488 514 551 607 640 627 599 541 497 483 468 444 416 400 398 385 373 368 357 355 362 368 377 383 386 388 391 385 370 360 345 323 309 323 324 297 296 314 351 390 478 542 515 440 456 465 490 535 559 618 675 808 882 886 896 890 890 905 870 822 715 652 623 547 582 533 451 354 312 242 188 133 62 20 14 4 5 4 5 4 3 3 4 4 3 2 4 4 3 2 4
1528 1516 1515 1513 1517 1518 1516 1532 1519 1493 1488 1464 1450 1457 1478 1501 1520 1604 1684 1723 1767 1764 1707 1645 1601 1624 1697 1927 1973 1936 1893 1807 1754 1738 1746 1803 1740 1606 1550 1544 1531 1510 1483 1467 1467 1461 1456 1455 1456 1454 1438 1427 1406 1381 1380 1390 1416 1542 1731 1667 1642 1651 1679 1556 1473 1417 1341 1311 1318 1324 1317 1304 1296 1294 1286 1281 1284 1292 1307 1363 1411 1517 1512 1513 1438 1319 1286 1268 1227 1191 1106 886 732 673 660 583 532 469 401 361 340 147 104 139 188 269 396 449 501 510 533 614 660 713 694 655 565 509 496 485 463 452 448 438 406 383 369 364 362 371 381 393 407 410 410 413 406 395 382 363 342 332 370 379 345 332 371 431 524 624 677 604 535 540 541 549 571 587 638 677 758 849 883 899 899 909 903 888 850 671 507 504 426 445 363 281 210 142 84 39 9 2 4 3 4 3 3 5 3 3 3 3 1 5 1 4 -1 3 2 3
1505 1495 1490 1488 1485 1475 1483 1529 1511 1470 1461 1447 1441 1453 1460 1491 1556 1628 1685 1751 1748 1736 1662 1589 1564 1554 1624 1921 1912 1794 1769 1819 1738 1715 1702 1741 1764 1582 1565 1555 1545 1540 1530 1453 1449 1443 1436 1438 1437 1430 1387 1358 1351 1357 1365 1385 1368 1542 1728 1663 1573 1515 1637 1515 1418 1366 1351 1318 1297 1299 1303 1299 1294 1290 1281 1279 1269 1269 1291 1362 1440 1586 1643 1596 1471 1313 1232 1207 1153 1097 969 763 637 608 583 548 496 438 389 367 288 112 104 145 208 352 439 493 505 519 554 664 720 771 731 665 572 527 519 510 502 488 481 468 447 397 381 378 380 400 410 424 443 449 453 458 466 445 413 386 369 372 411 408 385 398 469 577 658 761 787 686 617 602 594 590 601 622 649 687 753 841 875 888 886 855 775 701 708 673 458 317 337 221 182 102 38 9 4 3 4 5 3 3 3 4 4 3 12 3 2 3 4 3 3 2 3 2 3 2
1481 1476 1473 1472 1459 1464 1461 1518 1478 1436 1407 1418 1426 1430 1423 1442 1602 1627 1703 1757 1713 1682 1643 1573 1542 1542 1587 1767 1771 1673 1698 1817 1660 1670 1681 1715 1776 1624 1595 1601 1635 1592 1553 1483 1433 1435 1432 1420 1415 1400 1362 1341 1342 1345 1354 1366 1372 1444 1601 1663 1583 1495 1506 1496 1388 1353 1341 1328 1308 1279 1280 1290 1288 1280 1274 1267 1259 1256 1260 1303 1450 1566 1573 1448 1430 1313 1195 1114 1082 1004 849 714 616 560 548 512 454 392 354 315 182 91 115 170 236 386 484 507 531 570 622 752 777 808 779 676 570 542 540 541 542 528 510 494 454 417 405 407 417 439 454 468 493 499 506 532 559 493 457 421 411 401 439 440 433 500 618 715 791 882 830 752 692 648 629 634 637 646 685 731 775 803 789 775 726 661 622 544 510 417 367 242 136 76 18 4 6 5 4 2 5 6 4 3 4 4 5 4 3 4 4 4 6 1 0 4 3 3 5 1
1460 1458 1458 1450 1440 1447 1442 1451 1430 1406 1403 1408 1410 1400 1396 1406 1533 1626 1714 1750 1708 1648 1618 1548 1536 1522 1509 1701 1671 1601 1639 1624 1621 1649 1672 1709 1816 1698 1649 1706 1742 1654 1587 1550 1480 1444 1420 1409 1403 1392 1345 1343 1338 1338 1346 1344 1366 1351 1461 1411 1394 1535 1466 1440 1400 1358 1348 1331 1322 1304 1270 1272 1278 1277 1270 1258 1257 1242 1235 1237 1317 1382 1345 1231 1141 1122 1082 1063 1020 928 734 654 600 555 513 462 403 337 286 237 106 99 140 203 283 444 504 542 636 629 716 793 830 827 742 637 570 554 554 569 573 558 543 499 465 439 438 444 459 486 502 524 546 547 570 577 563 533 498 472 457 452 477 480 510 618 714 828 929 917 844 804 765 706 679 662 659 675 724 764 719 632 620 486 555 494 475 418 308 253 156 84 23 5 5 5 5 1 6 4 5 7 5 2 6 1 5 1 3 2 1 3 3 4 5 4 2 1 4 3
1420 1439 1436 1427 1415 1422 1422 1413 1391 1372 1381 1385 1385 1359 1362 1374 1443 1528 1663 1707 1713 1629 1580 1503 1482 1489 1489 1711 1640 1590 1558 1577 1618 1631 1666 1764 1836 1813 1758 1817 1819 1734 1673 1625 1532 1466 1411 1398 1392 1380 1350 1342 1341 1336 1338 1333 1327 1341 1332 1464 1325 1561 1436 1379 1362 1355 1363 1339 1340 1333 1309 1248 1257 1263 1257 1250 1244 1227 1209 1189 1168 1183 1139 1071 1046 1055 1042 1016 954 800 649 596 563 522 469 426 364 287 221 139 100 127 174 237 336 498 545 641 690 694 773 822 854 786 674 603 569 566 567 578 582 568 534 504 484 466 469 481 500 526 559 572 604 633 650 648 621 587 541 530 563 552 522 534 570 664 776 881 957 913 875 845 820 794 756 699 664 666 690 612 555 517 455 427 270 123 283 222 147 77 25 6 7 3 7 6 3 4 3 5 7 3 2 2 4 3 2 4 5 3 4 4 1 5 5 1 3 4 3 6
1367 1399 1401 1394 1388 1396 1389 1376 1347 1343 1346 1344 1349 1339 1340 1346 1392 1444 1525 1560 1656 1633 1515 1460 1460 1454 1459 1619 1608 1553 1562 1574 1581 1605 1723 1787 1812 1806 1782 1781 1764 1731 1685 1585 1516 1471 1384 1381 1378 1368 1356 1343 1336 1331 1325 1321 1317 1313 1321 1307 1451 1603 1485 1431 1443 1430 1399 1410 1396 1382 1354 1307 1241 1229 1242 1233 1221 1211 1190 1159 1124 1077 1039 1022 1017 1024 1010 983 811 624 557 527 485 470 408 344 288 220 150 107 118 156 200 267 445 546 619 665 738 751 811 812 776 708 615 579 573 570 575 582 569 548 526 512 501 486 486 519 586 623 629 650 691 738 765 789 760 675 620 655 685 614 582 583 599 687 750 825 901 915 897 887 866 867 818 745 663 601 540 447 403 336 227 323 215 176 88 29 7 5 6 3 4 4 0 2 4 4 3 6 3 4 0 4 4 3 1 4 3 3 2 3 3 4 0 5 3 1 4 1
1344 1341 1369 1370 1365 1363 1362 1338 1327 1313 1316 1308 1297 1319 1324 1320 1363 1397 1450 1489 1537 1588 1542 1470 1452 1437 1422 1511 1542 1528 1545 1567 1573 1623 1759 1784 1722 1713 1703 1674 1661 1644 1602 1536 1469 1442 1369 1365 1364 1361 1352 1345 1342 1327 1318 1317 1311 1287 1299 1313 1328 1539 1606 1581 1535 1510 1507 1527 1521 1511 1474 1424 1345 1238 1198 1207 1195 1173 1148 1121 1094 1049 1003 986 976 980 969 820 644 568 491 441 431 403 350 259 212 149 112 112 147 176 231 348 505 559 620 688 783 800 809 756 715 650 592 581 579 581 600 598 573 551 545 532 512 504 535 600 671 682 716 762 801 844 893 915 843 766 767 783 737 664 644 634 644 726 776 826 874 916 931 924 904 840 754 620 552 462 394 320 231 162 109 61 17 7 8 5 7 5 9 5 4 6 6 6 5 3 3 5 4 4 4 4 4 4 6 4 4 4 6 5 3 2 3 5 4 4 -1 6
1293 1302 1329 1347 1345 1337 1328 1308 1308 1283 1293 1291 1280 1300 1305 1299 1315 1339 1379 1420 1465 1492 1512 1485 1428 1407 1394 1393 1453 1501 1540 1558 1546 1680 1752 1707 1675 1646 1615 1620 1626 1595 1581 1495 1421 1381 1369 1339 1343 1331 1334 1331 1331 1323 1316 1303 1297 1292 1289 1290 1334 1438 1647 1677 1627 1592 1638 1634 1627 1590 1598 1558 1437 1316 1198 1163 1154 1114 1082 1070 1021 965 971 933 919 902 797 689 605 512 417 370 363 339 263 180 150 110 107 133 161 206 312 398 532 584 647 727 765 769 755 724 671 625 598 589 584 585 598 611 597 586 564 542 535 556 608 664 699 729 804 848 902 969 1024 1030 920 895 889 852 754 716 699 677 700 762 821 841 890 921 947 917 812 687 588 514 394 340 231 162 88 26 3 5 8 9 6 8 6 7 9 6 6 5 5 5 5 4 2 2 7 3 5 4 4 3 3 4 4 3 3 5 3 2 2 5 4 2 1 4
1273 1275 1281 1322 1318 1310 1291 1274 1265 1253 1272 1272 1267 1262 1274 1273 1271 1279 1332 1368 1418 1427 1430 1455 1398 1366 1368 1379 1409 1488 1523 1527 1557 1652 1662 1643 1618 1589 1561 1556 1583 1569 1526 1481 1416 1389 1353 1340 1340 1338 1334 1333 1343 1306 1299 1289 1283 1280 1279 1274 1296 1356 1524 1737 1734 1735 1769 1764 1695 1635 1611 1544 1450 1342 1222 1127 1089 1060 1038 999 969 922 905 884 861 806 718 660 565 393 340 305 286 225 172 150 100 105 121 155 220 316 388 469 541 607 669 690 687 709 710 694 651 622 608 600 589 589 598 619 631 633 591 567 572 623 684 732 760 813 880 956 1017 1098 1155 1128 1021 1002 965 844 759 758 748 760 781 822 854 876 894 946 910 834 735 598 451 377 258 173 79 14 6 5 8 7 6 8 9 6 5 4 5 4 4 6 6 6 5 9 6 7 3 3 3 4 5 4 4 4 4 3 4 4 5 6 7 4 3 -1 4 5
1239 1230 1241 1274 1293 1287 1273 1251 1225 1234 1247 1251 1249 1246 1248 1248 1232 1250 1293 1345 1376 1383 1379 1391 1364 1344 1353 1355 1414 1466 1498 1512 1540 1592 1612 1567 1552 1551 1544 1536 1559 1535 1532 1551 1451 1386 1333 1323 1322 1306 1315 1355 1379 1313 1279 1273 1272 1275 1269 1256 1258 1276 1408 1656 1743 1720 1627 1581 1529 1437 1442 1387 1295 1228 1163 1099 1059 1000 991 963 934 874 865 840 797 739 681 548 366 298 262 236 210 175 140 92 97 116 144 221 323 379 443 500 553 623 683 721 712 696 694 682 652 635 615 602 599 595 606 627 662 679 633 596 666 694 731 792 832 899 970 1067 1129 1218 1217 1130 1117 1050 916 823 800 761 774 817 827 861 905 899 919 907 759 688 576 499 379 225 119 30 8 4 6 9 9 4 5 2 5 6 7 7 5 7 7 5 4 5 7 10 7 7 6 6 5 3 4 4 3 4 3 4 4 4 4 4 3 2 1 1 8 2
1230 1221 1216 1234 1257 1259 1251 1237 1202 1221 1212 1230 1227 1230 1228 1220 1218 1250 1289 1329 1361 1364 1364 1359 1318 1315 1326 1339 1399 1442 1462 1468 1501 1530 1536 1514 1512 1537 1527 1515 1541 1506 1528 1553 1509 1438 1352 1308 1301 1291 1320 1374 1410 1363 1246 1268 1261 1266 1255 1239 1241 1225 1319 1450 1707 1588 1468 1388 1320 1275 1252 1227 1194 1124 1110 1080 1031 975 935 929 878 795 783 770 712 596 511 357 280 236 204 182 162 141 90 85 103 130 191 273 359 414 473 509 603 640 694 712 715 706 689 677 653 636 619 603 606 611 626 645 680 706 685 665 690 733 772 829 898 961 1047 1178 1244 1322 1201 1135 1075 958 872 848 823 759 835 866 868 906 954 922 905 821 681 534 464 332 242 105 16 5 4 5 8 4 7 9 8 8 6 9 7 6 9 6 8 3 8 3 6 6 7 6 8 5 5 3 4 3 5 5 4 4 3 4 4 3 6 4 5 2 1 2
1126 1148 1182 1183 1218 1226 1222 1210 1201 1215 1204 1204 1200 1205 1202 1179 1216 1259 1267 1298 1391 1392 1345 1316 1292 1298 1297 1299 1350 1399 1415 1447 1486 1486 1490 1496 1491 1504 1487 1477 1494 1489 1533 1533 1500 1456 1352 1293 1281 1275 1293 1379 1409 1387 1298 1244 1246 1245 1236 1221 1208 1188 1206 1323 1459 1408 1366 1264 1202 1144 1127 1112 1091 1068 1047 1020 969 948 908 863 809 704 641 545 496 423 330 255 212 176 158 134 121 93 85 100 136 180 236 297 393 449 512 525 637 676 700 707 703 700 685 671 665 646 627 619 616 632 652 662 699 737 742 721 741 778 832 904 980 1025 1102 1227 1331 1273 1183 1067 968 904 866 869 847 842 887 908 924 957 964 917 798 664 586 432 303 217 91 1 3 2 3 6 7 9 8 7 7 6 7 9 6 8 6 7 8 6 6 7 9 7 8 9 8 7 6 8 4 4 3 3 5 4 3 3 3 5 2 3 5 5 3 6
994 1006 1068 1068 1100 1144 1188 1159 1177 1204 1185 1167 1173 1173 1162 1136 1176 1201 1249 1272 1293 1303 1298 1291 1254 1259 1253 1243 1270 1308 1391 1443 1449 1406 1457 1460 1455 1463 1411 1440 1413 1471 1471 1465 1457 1438 1340 1289 1275 1273 1283 1299 1370 1346 1375 1233 1229 1222 1208 1195 1181 1162 1134 1194 1262 1233 1188 1126 1102 1079 1082 1081 1060 1017 992 951 924 882 868 856 801 672 525 439 366 301 234 189 158 137 123 108 82 81 117 154 185 223 261 319 413 472 495 574 669 699 717 720 716 700 689 680 670 643 637 636 637 657 687 717 753 797 808 791 813 871 920 999 1040 1058 1144 1274 1226 1143 1105 1044 940 914 908 891 881 887 919 947 958 998 901 767 688 555 431 311 196 73 6 9 7 6 4 6 4 12 13 8 5 5 8 9 7 10 8 11 7 7 8 4 5 5 6 7 6 8 3 8 3 4 4 5 4 5 5 5 5 2 1 2 5 1 7 4
926 942 949 939 947 963 988 1046 1079 1147 1117 1124 1148 1125 1104 1082 1119 1160 1200 1228 1240 1264 1245 1247 1228 1227 1223 1211 1216 1284 1309 1422 1360 1336 1383 1414 1419 1369 1350 1362 1377 1422 1424 1427 1424 1397 1320 1277 1286 1285 1279 1261 1277 1323 1408 1289 1202 1195 1177 1170 1162 1139 1110 1083 1149 1099 1076 1029 1022 1026 1043 1029 1019 960 906 902 896 869 855 830 781 621 470 352 292 225 170 149 128 107 87 70 82 118 148 184 215 252 279 339 410 466 518 648 717 720 728 726 718 715 696 688 677 680 667 664 685 724 763 794 841 885 895 888 927 989 1037 1066 1071 1063 1100 1198 1101 1036 1042 1009 959 941 931 906 873 939 962 980 990 925 787 648 526 452 308 187 54 6 3 5 0 7 5 6 6 6 5 5 4 10 13 10 10 4 14 3 10 9 7 7 6 8 10 8 8 8 6 4 4 3 4 4 4 3 4 7 5 7 5 3 0 2 4 5
774 803 858 867 846 846 885 930 937 970 1018 1046 1071 1073 1049 1006 1061 1114 1149 1173 1207 1226 1208 1227 1204 1205 1205 1183 1169 1253 1286 1309 1293 1286 1297 1327 1349 1316 1309 1339 1361 1376 1374 1382 1388 1365 1295 1267 1279 1296 1299 1246 1195 1206 1244 1275 1211 1165 1152 1129 1116 1091 1073 1044 1087 1045 1002 984 982 984 975 966 956 902 850 832 844 841 826 809 762 606 407 300 223 171 130 113 96 68 68 80 107 139 183 220 245 267 295 349 405 480 565 677 753 747 735 723 729 726 713 726 743 744 745 768 783 818 842 899 952 989 980 1002 1033 1118 1164 1147 1087 1052 1064 1127 1048 986 1021 1001 981 978 951 930 929 972 998 1030 951 851 684 555 427 301 194 55 2 6 3 3 5 7 4 7 7 10 9 9 8 9 15 8 9 11 12 9 8 9 9 7 11 6 8 7 8 9 7 4 4 3 4 4 5 3 0 3 3 5 3 6 4 3 4 3
579 593 631 671 699 757 848 882 898 908 923 952 1000 1012 1009 966 980 1015 1052 1088 1147 1162 1160 1191 1197 1164 1165 1147 1119 1178 1218 1249 1252 1239 1244 1259 1271 1271 1270 1299 1320 1319 1337 1334 1327 1316 1261 1238 1245 1257 1223 1178 1137 1132 1153 1189 1208 1171 1115 1080 1033 1003 982 950 998 1000 952 943 942 930 909 891 855 757 761 765 797 802 777 667 548 472 317 221 156 121 102 89 66 64 86 113 149 201 223 262 274 284 312 360 409 492 602 733 748 747 735 731 740 735 752 802 835 857 875 894 907 938 965 994 1042 1070 1067 1067 1121 1214 1274 1214 1090 1032 1026 1035 986 946 1019 1028 1037 1007 960 961 982 1001 1029 904 789 706 628 468 316 181 57 2 3 6 4 4 6 5 6 7 7 10 9 9 8 9 11 7 10 9 10 11 7 9 4 8 9 11 9 7 11 8 5 6 7 2 4 5 6 3 4 3 2 4 4 6 7 3 3 5
515 531 553 572 586 667 757 819 824 857 884 951 989 990 975 946 919 925 936 945 1016 1001 1061 1117 1140 1111 1110 1100 1063 1106 1138 1157 1187 1206 1212 1220 1224 1213 1244 1247 1257 1255 1283 1279 1258 1228 1203 1197 1194 1172 1147 1114 1101 1088 1099 1128 1150 1162 1112 1033 978 917 882 863 891 910 893 889 896 877 803 735 698 706 701 676 686 721 721 542 431 338 234 155 101 84 69 65 68 79 109 166 286 295 273 288 299 315 340 381 423 525 668 727 739 760 755 739 740 757 804 862 913 974 990 1000 1019 1069 1100 1089 1102 1124 1117 1125 1201 1305 1368 1245 1138 1036 986 967 933 926 988 1066 1067 1009 992 1005 1046 999 879 779 667 536 484 375 223 73 5 6 4 6 5 6 8 8 7 6 9 8 10 6 11 7 10 10 9 8 10 10 7 7 11 9 10 10 13 11 11 7 4 3 7 4 7 4 4 2 2 2 4 6 6 7 6 2 1 1
487 495 525 553 540 569 644 692 778 826 877 926 966 963 950 920 860 865 872 878 879 890 913 948 975 977 1045 1025 1001 1032 1037 1058 1081 1138 1149 1134 1128 1140 1188 1188 1183 1213 1219 1235 1209 1206 1189 1178 1147 1107 1086 1078 1066 1062 1069 1072 1092 1110 1050 1011 845 814 776 735 750 796 840 868 893 815 664 620 593 608 590 566 589 656 670 451 363 262 166 95 70 68 65 66 79 112 178 271 358 361 327 349 353 360 378 402 445 571 710 726 740 769 778 807 811 833 866 921 976 1070 1072 1097 1131 1184 1230 1191 1150 1139 1142 1175 1270 1386 1400 1268 1165 1053 987 933 904 895 929 1062 1102 1048 1030 1042 929 852 760 637 588 402 304 222 81 2 8 4 6 4 9 7 10 10 7 10 10 8 11 11 8 9 12 6 11 12 9 7 8 11 11 11 10 10 11 8 8 11 0 5 7 4 5 4 6 5 1 4 4 4 0 1 -1 4 4 1
456 454 484 530 521 534 574 631 704 802 865 896 923 932 924 904 830 847 830 834 834 845 853 873 895 920 966 974 943 954 969 995 993 1020 1055 1073 1073 1088 1096 1099 1107 1124 1110 1112 1137 1120 1094 1088 1087 1078 1067 1056 1050 1049 1035 1015 1011 997 974 845 690 672 635 613 600 603 699 742 804 579 550 476 419 385 404 435 458 467 400 321 247 184 91 68 66 66 65 70 127 185 269 363 388 393 371 387 380 392 422 439 485 636 718 749 758 797 837 904 912 910 967 1025 1077 1134 1153 1186 1228 1321 1321 1213 1179 1161 1167 1200 1282 1421 1384 1247 1129 1055 968 881 860 849 876 914 957 1023 975 892 790 706 646 549 462 369 198 70 6 4 6 4 5 6 12 7 9 11 7 9 10 12 11 9 12 11 11 9 8 11 12 11 13 10 10 11 9 9 10 11 11 9 -1 3 4 3 2 5 4 3 4 5 5 6 8 5 4 3 5 4
479 459 442 464 468 474 528 567 629 729 829 880 883 892 881 848 824 823 807 795 794 808 812 844 863 907 943 945 919 915 911 910 928 937 996 1006 1010 993 1033 1043 1027 1054 1056 1054 1058 1072 1068 1067 1075 1077 1075 1066 1065 1004 916 867 854 894 737 627 563 568 530 497 453 427 416 415 393 366 319 293 277 272 275 287 324 367 282 212 147 89 68 69 67 64 72 117 181 254 343 387 397 395 395 422 423 436 467 505 532 661 749 781 820 884 921 959 996 1009 1076 1148 1197 1177 1205 1218 1239 1385 1286 1211 1186 1169 1172 1212 1273 1386 1408 1245 1127 1022 943 799 733 743 715 781 802 835 803 739 668 588 485 283 272 181 29 6 7 4 5 6 7 10 6 9 10 13 11 11 10 11 11 12 12 11 10 11 11 11 12 15 10 12 12 11 13 9 9 11 9 4 -1 3 5 3 5 3 3 4 4 5 3 5 4 5 3 6 7 4
465 459 423 421 425 439 460 530 607 703 755 824 843 847 822 798 806 759 706 705 708 731 753 793 842 881 894 891 885 864 861 862 882 897 932 936 930 938 946 959 964 990 994 1005 1014 1027 1027 1026 1031 1045 1048 1026 1015 895 841 763 682 602 543 502 468 485 461 409 373 325 298 280 262 233 206 177 167 171 190 205 223 215 161 111 71 66 66 65 67 73 120 167 232 304 372 396 402 405 406 425 453 494 525 546 580 686 804 871 908 972 1010 1025 1069 1092 1181 1296 1315 1240 1240 1243 1269 1359 1251 1223 1219 1204 1205 1232 1273 1341 1408 1237 1118 1004 915 780 662 602 609 647 661 686 651 617 524 466 357 93 158 30 9 8 7 7 6 7 7 9 13 5 14 14 11 10 13 14 10 9 11 14 12 6 11 10 12 11 14 12 12 12 13 11 11 10 3 3 4 8 7 0 6 5 4 4 4 5 5 6 4 1 1 6 4 5
404 410 377 338 348 386 413 478 558 652 685 760 786 790 749 756 738 670 660 667 695 709 717 729 797 806 807 824 809 788 819 819 834 853 877 886 903 913 918 935 932 941 948 955 981 958 976 978 992 1010 993 962 911 832 731 643 567 507 459 429 421 413 406 353 291 239 216 182 155 129 98 80 73 91 108 129 142 119 73 66 68 68 66 67 77 113 163 217 301 362 395 398 412 406 441 448 491 517 559 593 660 773 897 940 974 1048 1057 1089 1133 1162 1197 1266 1344 1261 1271 1265 1302 1351 1257 1255 1259 1259 1254 1260 1276 1314 1374 1199 1100 1027 919 780 663 566 551 514 519 548 509 491 392 312 115 2 11 7 7 9 7 6 6 11 11 11 12 6 14 13 14 9 13 14 12 16 19 14 11 10 13 14 12 12 14 13 12 12 10 9 10 5 5 5 8 5 4 6 2 3 4 5 4 4 4 5 3 6 4 1 2 2
369 377 338 327 324 324 333 373 444 513 563 606 654 659 652 711 715 650 632 641 659 681 690 693 725 773 758 776 745 732 779 778 789 801 831 842 869 876 888 878 891 887 883 887 887 895 919 908 934 969 962 927 873 807 648 552 478 413 372 347 348 336 285 276 194 175 136 95 70 68 67 65 92 64 68 67 66 68 65 67 66 65 66 79 132 164 212 285 354 388 403 410 414 452 488 520 562 574 577 637 685 829 987 1034 1051 1144 1180 1169 1170 1185 1204 1243 1317 1285 1295 1306 1346 1386 1289 1287 1291 1305 1312 1295 1295 1331 1334 1206 1134 1049 924 788 694 605 527 475 410 367 343 375 281 179 65 5 9 9 10 8 6 5 6 11 14 15 10 18 15 12 13 16 16 11 17 15 13 16 11 12 13 13 14 13 12 11 13 12 11 9 10 2 4 7 9 6 3 5 3 4 6 7 6 4 4 5 4 2 2 4 5 9
354 352 322 321 325 324 323 327 376 432 483 522 523 542 554 566 591 597 590 605 617 662 681 696 721 740 720 719 694 700 719 712 730 737 749 796 824 836 833 826 845 835 831 837 836 841 850 835 818 868 885 883 812 722 610 516 393 326 299 276 253 223 197 165 141 114 68 67 67 66 67 115 146 62 67 67 67 66 67 66 67 69 91 127 167 218 294 376 421 401 412 420 430 465 505 576 611 636 611 677 717 851 1083 1093 1125 1254 1338 1281 1211 1214 1236 1249 1280 1313 1314 1335 1345 1441 1339 1302 1309 1321 1376 1355 1355 1339 1306 1235 1151 1072 989 867 784 682 561 417 302 225 186 196 136 40 9 10 11 12 8 9 11 7 12 11 17 11 16 14 12 14 18 18 10 17 15 11 10 21 12 14 12 10 11 11 13 13 10 11 11 9 3 4 3 3 4 5 5 5 4 2 4 5 7 2 3 3 10 4 6 9 4 4
366 361 330 324 323 322 356 378 396 375 388 458 492 506 516 526 529 538 543 558 590 582 617 646 682 690 654 649 671 674 664 661 652 665 703 720 740 741 748 775 806 774 769 798 782 734 742 717 681 722 796 825 730 589 450 384 294 247 218 196 160 136 123 106 89 73 67 66 67 66 94 146 169 59 65 67 68 66 66 68 92 115 137 175 218 272 352 416 432 407 414 428 448 476 540 613 674 673 646 763 844 851 1142 1147 1177 1341 1487 1398 1268 1261 1264 1280 1269 1315 1347 1348 1375 1492 1399 1333 1335 1345 1396 1422 1403 1386 1365 1260 1132 1071 1034 945 884 746 584 409 248 173 110 64 16 7 9 6 14 11 20 6 5 9 18 12 21 15 21 19 14 15 18 11 12 24 14 14 15 12 11 12 13 13 14 16 14 14 11 7 7 4 6 2 5 7 4 6 8 5 11 5 7 4 4 4 4 4 4 18 14 18 36 77
377 379 375 321 321 325 382 416 438 442 452 373 422 450 470 482 484 500 494 518 520 535 558 581 591 587 603 601 634 639 621 615 613 616 629 620 644 648 695 700 742 691 718 722 693 625 647 605 593 638 640 659 639 416 306 235 228 223 209 198 185 177 166 152 127 104 64 66 67 89 121 178 209 85 65 67 67 72 106 120 136 158 179 203 272 329 382 404 419 408 408 432 463 510 575 635 727 726 730 850 982 1081 1188 1207 1237 1339 1482 1486 1333 1276 1265 1275 1282 1352 1369 1378 1393 1492 1454 1376 1368 1380 1426 1458 1440 1458 1416 1250 1115 1036 1037 977 860 729 585 431 288 131 71 40 10 10 11 5 11 21 15 11 4 15 23 17 12 23 27 25 25 20 12 16 27 23 17 6 13 15 13 13 13 15 12 14 14 12 12 10 7 8 3 8 10 3 1 6 6 5 30 25 16 39 52 57 59 61 80 118 121 140 165 187
425 395 398 383 329 356 400 431 455 464 469 482 485 496 492 468 444 475 471 479 485 499 510 517 503 493 510 534 552 574 562 514 506 495 509 526 544 571 587 605 582 585 618 578 522 509 509 470 486 487 450 426 437 279 266 265 257 247 230 217 206 190 171 160 144 125 85 67 89 111 130 171 227 178 119 101 109 126 157 179 193 200 226 266 323 343 379 393 408 411 418 441 501 578 621 705 810 832 862 959 1114 1247 1244 1230 1252 1273 1384 1535 1401 1320 1316 1300 1307 1364 1385 1387 1395 1459 1498 1407 1387 1390 1421 1486 1496 1550 1423 1271 1135 1017 913 818 737 635 512 416 291 132 14 16 11 13 11 9 7 19 15 21 10 13 30 18 15 26 27 28 15 13 22 19 17 13 10 8 15 16 15 9 14 15 13 12 13 11 10 8 0 7 4 8 4 4 13 46 80 114 132 148 178 172 143 150 159 190 212 224 243 266 289 326
513 481 435 419 393 411 458 465 510 475 486 497 503 502 521 520 506 452 444 456 460 470 470 452 480 492 475 440 448 447 437 422 422 412 429 451 474 490 478 455 416 434 451 391 355 350 349 341 366 362 335 298 283 283 281 277 275 262 242 227 217 199 179 162 136 109 96 106 125 145 161 190 218 200 174 165 175 199 219 231 243 251 272 303 351 373 385 394 401 418 441 479 546 648 709 778 864 916 949 999 1151 1328 1323 1259 1263 1284 1362 1509 1398 1355 1347 1327 1351 1409 1390 1383 1398 1442 1552 1486 1437 1425 1465 1520 1567 1568 1399 1260 1149 1001 862 734 623 515 426 297 174 42 17 15 29 2 15 14 8 18 18 19 14 16 14 25 25 23 21 15 8 29 24 22 10 12 19 20 19 8 17 13 11 13 13 13 7 8 9 3 6 6 3 5 28 65 97 149 180 241 253 236 281 275 214 245 268 305 345 355 345 399 450 490
570 536 500 460 440 452 478 486 519 517 514 515 517 517 515 519 511 509 512 505 500 497 492 502 502 507 503 502 494 491 490 480 473 474 460 415 413 405 427 435 434 433 409 406 399 391 386 376 362 345 337 316 299 294 290 281 272 263 250 231 214 198 180 155 130 140 143 145 162 191 200 215 221 208 221 256 247 266 271 286 302 311 353 361 385 415 407 400 415 429 496 535 622 722 815 872 927 970 1021 1057 1131 1270 1406 1332 1302 1310 1350 1496 1403 1362 1352 1373 1460 1450 1422 1410 1418 1467 1644 1620 1507 1476 1502 1565 1563 1474 1347 1207 1083 948 820 681 550 426 303 202 85 14 13 20 21 24 6 15 12 26 17 16 15 18 26 38 27 18 15 24 20 17 24 17 10 16 24 13 15 13 11 14 9 9 12 12 9 10 4 4 6 4 28 64 127 171 222 267 304 361 351 334 372 337 300 348 393 435 487 505 463 545 589 658
722 652 558 520 458 487 510 502 519 525 526 512 532 526 531 539 534 531 524 512 510 503 512 514 516 509 509 506 501 496 494 487 484 482 474 458 453 451 445 439 435 434 420 415 409 400 392 380 364 354 343 327 311 300 295 291 278 264 247 229 210 201 178 179 246 234 236 221 235 253 250 263 268 271 356 354 305 298 317 331 351 369 412 436 425 419 425 467 434 482 555 603 696 813 920 1004 1057 1062 1064 1089 1123 1206 1341 1437 1360 1352 1410 1490 1404 1420 1381 1403 1518 1510 1468 1440 1459 1547 1725 1713 1571 1533 1540 1589 1438 1315 1269 1125 995 840 711 606 516 377 243 102 24 19 24 23 26 27 24 9 28 19 24 20 28 24 28 31 10 25 25 30 18 19 21 14 18 16 22 10 13 14 12 9 13 11 10 9 6 3 5 5 4 49 108 160 214 282 344 403 457 495 449 444 475 418 399 461 500 571 626 641 591 681 754 824
889 797 628 551 492 500 506 535 534 523 524 527 533 549 541 538 536 536 537 530 527 521 520 505 516 513 512 508 500 498 499 494 487 485 471 461 453 452 444 444 440 432 424 419 411 405 397 383 364 355 345 335 320 311 301 291 273 267 254 241 221 189 209 296 320 316 302 281 273 267 265 301 320 336 368 341 322 325 334 349 374 413 448 472 483 459 450 503 502 527 634 690 799 916 1041 1140 1174 1105 1102 1119 1137 1169 1288 1474 1422 1410 1506 1510 1439 1432 1407 1418 1525 1577 1490 1480 1498 1609 1788 1763 1664 1553 1560 1544 1369 1222 1109 1071 963 805 645 515 373 288 143 41 46 44 36 23 31 32 39 23 29 26 36 22 19 27 12 32 31 27 24 24 17 28 16 9 19 12 17 8 16 12 7 12 7 8 8 3 5 6 4 22 61 127 196 276 354 406 478 550 594 611 564 570 576 517 520 551 603 692 767 769 743 788 916 957
953 926 760 579 516 499 512 555 545 532 516 527 535 553 538 548 528 546 538 531 527 523 522 511 519 516 512 508 506 502 498 491 486 480 467 463 461 456 446 445 435 431 427 418 412 407 399 384 362 351 345 338 328 319 303 295 283 268 254 234 205 241 312 363 384 361 344 333 313 303 313 339 364 391 383 358 347 347 352 366 393 450 483 492 508 514 515 522 572 628 746 824 906 1033 1154 1264 1297 1171 1133 1144 1140 1178 1248 1346 1491 1472 1555 1541 1431 1421 1405 1430 1554 1593 1526 1486 1467 1536 1593 1595 1530 1458 1393 1503 1346 1197 1069 960 883 772 621 477 316 153 47 65 62 51 44 41 8 29 31 24 28 31 25 23 30 35 31 35 29 25 25 25 17 19 12 25 28 11 16 7 15 6 10 10 8 7 4 6 3 6 45 82 144 200 296 396 473 565 599 695 728 744 696 717 688 638 633 655 703 795 870 903 875 917 1000 1073
1002 954 821 628 532 503 512 549 548 541 531 531 540 544 537 553 540 529 531 537 530 525 523 523 522 516 513 510 508 504 495 490 483 475 467 462 460 450 449 443 434 425 421 413 411 401 391 378 367 357 346 340 326 319 307 293 281 269 247 227 309 385 438 436 407 431 420 369 357 389 407 400 409 426 431 403 405 417 421 419 431 468 513 516 530 540 555 574 670 790 859 959 1053 1190 1265 1389 1379 1283 1180 1158 1160 1206 1241 1282 1432 1587 1639 1604 1480 1427 1431 1507 1549 1447 1424 1364 1298 1362 1408 1421 1345 1326 1307 1412 1296 1113 957 845 721 657 508 362 242 71 82 76 72 57 53 50 45 35 38 27 31 27 42 31 32 30 36 32 29 27 21 20 28 14 15 16 27 18 11 9 10 10 9 7 6 7 5 6 12 51 101 163 225 309 439 532 575 716 728 822 878 891 826 842 803 766 753 761 801 895 975 1044 1020 1039 1111 1031
1115 1058 908 749 572 498 522 528 544 555 544 543 548 554 565 562 548 543 540 533 529 530 527 524 521 516 513 513 510 506 498 487 480 473 467 462 462 461 448 441 435 423 417 409 402 398 391 380 370 367 346 343 331 320 308 297 287 244 261 336 406 450 486 475 433 468 456 422 482 511 508 494 459 440 469 484 514 520 527 523 514 525 552 562 564 575 607 685 758 892 990 1099 1226 1337 1436 1513 1498 1376 1292 1195 1206 1239 1263 1285 1401 1594 1731 1612 1515 1454 1456 1449 1396 1301 1334 1304 1201 1192 1259 1361 1238 1224 1223 1277 1132 1042 881 724 595 473 388 252 94 98 100 97 82 77 65 53 53 64 53 38 33 26 40 39 34 36 36 29 32 24 26 25 21 16 22 15 17 13 10 12 8 7 4 5 4 5 5 16 66 111 177 260 302 416 573 668 742 820 860 961 1027 1019 955 912 893 868 861 874 912 991 1073 1147 1161 1141 1083 1025
1245 1151 1068 865 605 505 523 539 534 539 546 548 561 565 579 558 546 542 542 532 532 528 523 526 521 521 517 511 507 505 497 490 482 478 474 468 465 461 455 449 444 435 428 411 407 409 394 384 374 361 342 341 324 319 303 271 266 304 375 442 467 489 515 529 489 524 522 521 602 599 578 550 527 491 517 556 561 562 570 597 588 582 591 585 624 672 670 781 870 976 1133 1259 1326 1383 1528 1680 1605 1466 1364 1311 1273 1284 1275 1307 1432 1596 1550 1625 1582 1555 1482 1355 1311 1219 1212 1258 1213 1145 1128 1236 1184 1142 1076 1041 968 874 784 638 354 338 249 117 122 109 106 104 95 83 68 62 56 78 64 46 23 38 36 31 36 34 33 22 31 25 36 11 22 18 26 10 9 10 12 12 6 6 3 4 7 7 31 82 131 194 293 362 413 504 642 817 894 936 1000 1076 1131 1101 1006 956 962 970 967 974 1027 1079 1132 1149 1143 1140 1093 1059
1356 1277 1172 960 746 575 530 534 538 543 548 556 542 573 555 567 545 540 540 536 534 530 529 525 521 519 515 514 509 504 497 491 487 483 480 473 469 464 463 453 453 463 431 405 400 394 390 386 376 366 355 334 312 302 346 353 376 396 456 518 530 531 544 562 574 627 642 644 842 834 740 686 630 611 647 674 669 680 706 728 768 715 713 700 758 839 845 895 1009 1125 1266 1349 1377 1411 1464 1640 1729 1586 1461 1357 1324 1295 1303 1353 1511 1576 1514 1442 1477 1474 1483 1332 1256 1196 1130 1108 1232 1136 1086 1064 1105 1045 901 831 820 694 692 522 359 203 161 141 131 129 115 107 101 97 86 66 46 53 56 56 54 49 32 28 33 34 30 36 21 24 20 20 17 6 5 9 16 6 11 13 7 8 7 5 5 33 92 156 229 321 361 430 501 590 692 801 977 1074 1138 1216 1230 1143 1048 998 1027 1074 1059 1064 1075 1071 1073 1080 1079 1103 1109 1085
1372 1359 1327 1044 806 610 527 538 545 546 554 576 528 543 555 550 545 545 548 547 531 531 524 526 524 517 515 510 507 502 496 492 487 484 482 480 475 463 461 460 459 442 440 421 406 389 382 379 366 353 320 353 402 490 495 456 461 478 529 575 585 609 671 733 770 811 818 936 1046 1092 979 894 915 863 869 888 870 866 895 911 940 884 874 859 889 996 1045 1105 1237 1309 1375 1399 1419 1452 1525 1627 1723 1556 1426 1372 1365 1346 1356 1470 1577 1520 1294 1229 1301 1431 1470 1320 1193 1148 1099 1088 1092 1132 1053 998 965 823 781 661 616 561 491 355 219 166 158 151 144 133 128 116 108 100 109 111 81 54 55 51 52 45 29 35 31 34 36 34 31 23 29 18 18 17 11 10 11 5 9 9 11 7 4 6 56 124 198 236 329 469 492 516 545 624 733 859 1008 1095 1138 1222 1194 1112 1050 1024 1032 1042 1064 1098 1120 1088 1069 1055 1047 1042 1086 1147
1355 1355 1352 1049 797 611 534 545 551 554 558 556 547 539 555 554 558 564 542 542 535 533 529 523 523 519 513 511 505 501 499 492 494 490 486 480 477 469 467 462 462 455 441 423 396 357 361 382 375 389 434 478 559 593 542 514 511 542 582 621 669 767 848 905 958 1025 1034 1086 1159 1236 1232 1142 1132 1121 1151 1140 1102 1060 1102 1124 1105 1068 1047 1036 1079 1161 1201 1241 1357 1376 1395 1461 1492 1495 1543 1627 1689 1549 1425 1389 1389 1386 1409 1506 1577 1420 1265 1148 1188 1308 1285 1205 1140 1078 1031 1034 1014 946 899 832 799 680 621 515 447 408 304 201 184 177 168 161 151 144 134 126 128 101 107 103 71 63 61 55 47 49 48 36 39 34 36 29 40 27 25 19 19 15 15 6 17 2 5 6 6 6 6 65 142 247 324 351 378 524 554 558 593 681 754 832 923 1026 1045 1092 1121 1073 1051 1037 1040 1034 1039 1037 1062 1083 1077 1045 1023 1012 1014 1087
1338 1336 1318 1074 813 600 555 561 560 568 576 554 557 551 565 568 581 552 543 544 537 531 531 526 520 516 510 509 505 505 502 498 493 490 484 479 475 472 470 466 463 460 436 400 381 395 420 474 494 494 518 589 617 631 617 594 600 613 640 679 783 899 972 1011 1073 1176 1161 1199 1268 1362 1450 1460 1383 1342 1375 1332 1281 1247 1304 1340 1364 1289 1246 1256 1289 1266 1269 1299 1394 1413 1433 1484 1566 1566 1586 1673 1690 1544 1434 1416 1402 1409 1473 1581 1561 1407 1275 1106 1097 1110 1076 1095 1095 962 914 891 829 785 741 669 639 565 477 404 323 262 207 197 188 192 179 171 158 152 144 127 127 117 99 96 73 66 63 56 63 41 46 44 36 35 28 36 29 30 18 15 13 17 15 11 11 9 4 5 6 6 81 156 272 363 452 419 407 521 566 580 622 709 782 861 914 989 1025 1055 1071 1059 1058 1048 1042 1033 1028 1027 1024 1018 1049 1029 1009 990 976 975
1301 1295 1271 995 763 579 579 581 583 576 583 570 567 564 574 571 549 546 553 544 544 536 527 523 519 516 512 510 509 505 506 504 495 491 487 477 477 477 471 462 457 441 408 417 436 461 528 580 569 563 588 669 685 693 670 671 723 775 793 831 880 1009 1069 1124 1190 1234 1247 1292 1335 1408 1560 1610 1500 1438 1451 1478 1545 1470 1479 1565 1467 1407 1387 1395 1362 1329 1313 1340 1404 1444 1477 1521 1620 1621 1648 1743 1640 1506 1444 1434 1462 1481 1561 1642 1546 1357 1224 1082 1033 984 945 936 952 873 807 755 685 620 590 537 482 423 349 292 232 216 209 200 183 196 187 172 168 157 153 136 138 138 111 109 86 81 68 69 48 53 51 44 52 34 32 29 22 22 21 17 11 19 11 11 14 9 7 3 20 88 175 273 374 475 588 472 457 557 580 600 657 744 824 895 944 1003 1025 1042 1055 1058 1061 1052 1045 1035 1021 1013 1008 1004 1001 990 977 960 950 934
1290 1300 1067 854 707 583 586 595 584 609 581 572 579 579 569 564 561 556 545 545 539 533 530 523 518 517 515 511 507 508 505 502 494 490 487 483 475 472 473 461 423 447 472 474 504 528 579 605 620 666 707 745 750 746 748 799 862 897 940 957 1025 1077 1174 1246 1303 1309 1331 1365 1389 1441 1563 1711 1581 1493 1492 1508 1581 1660 1628 1605 1493 1465 1449 1441 1395 1372 1360 1374 1422 1466 1508 1555 1646 1683 1729 1728 1644 1541 1496 1508 1503 1538 1655 1720 1539 1389 1239 1128 1047 983 950 878 807 747 693 658 589 529 477 422 360 302 257 242 224 221 212 207 200 199 189 182 175 165 159 142 145 133 120 109 94 87 75 64 61 55 52 45 41 39 39 24 31 15 13 12 11 12 12 9 9 11 12 29 94 189 314 418 510 591 619 515 503 560 577 619 675 760 850 942 988 1020 1034 1044 1059 1066 1070 1060 1044 1021 1009 1001 995 990 976 965 955 943 935 928
1275 1179 950 772 609 608 605 608 594 596 592 580 583 576 576 567 560 555 550 543 538 533 528 523 519 516 514 512 507 506 504 499 494 493 489 485 470 463 453 428 480 515 530 546 548 580 613 648 674 719 762 806 853 811 835 865 922 967 1009 1054 1126 1212 1296 1388 1427 1383 1405 1420 1441 1467 1556 1728 1591 1529 1517 1536 1607 1711 1729 1609 1516 1491 1483 1473 1422 1409 1401 1412 1439 1477 1524 1612 1687 1746 1762 1628 1575 1556 1547 1541 1542 1598 1709 1549 1435 1422 1318 1217 1052 923 878 800 727 644 580 539 503 465 407 342 296 257 239 235 234 226 215 212 203 206 201 190 184 177 163 152 154 137 126 103 96 92 86 71 72 58 60 44 44 40 31 32 26 11 15 13 12 13 9 7 7 13 22 76 164 315 439 534 624 681 632 546 525 558 579 624 692 777 873 991 1010 1023 1039 1042 1056 1083 1086 1079 1048 1014 1001 993 986 977 966 961 943 939 928 929
1163 984 813 654 622 621 609 614 624 615 590 588 596 581 584 573 566 542 549 540 529 532 528 521 516 515 512 511 513 504 500 500 498 495 490 468 433 441 464 495 540 568 586 622 635 660 658 696 750 790 827 867 896 881 888 932 988 1048 1100 1165 1267 1362 1431 1505 1520 1443 1440 1450 1469 1481 1538 1689 1591 1551 1545 1560 1620 1709 1747 1624 1525 1511 1503 1495 1457 1435 1439 1435 1450 1481 1598 1686 1746 1813 1689 1595 1572 1568 1571 1570 1607 1681 1582 1450 1335 1266 1251 1122 943 819 791 683 614 545 474 426 376 365 323 276 252 249 243 239 239 239 226 221 218 215 198 200 191 180 166 155 148 138 129 124 108 107 105 93 80 73 59 59 43 32 38 34 25 16 7 10 9 7 10 9 10 27 47 121 197 373 509 598 663 752 665 562 528 552 575 624 697 788 889 1003 1027 1038 1048 1056 1084 1109 1104 1057 1022 1009 998 990 985 977 966 957 941 938 934 919
857 795 693 622 635 629 627 640 620 607 586 588 604 583 577 557 561 546 552 542 530 522 524 521 516 513 511 507 509 504 497 493 498 493 467 516 527 538 543 561 602 638 650 671 694 705 728 768 798 848 893 929 953 972 977 1035 1120 1191 1250 1304 1371 1447 1585 1673 1597 1502 1482 1489 1497 1503 1543 1681 1613 1575 1561 1587 1631 1741 1770 1614 1547 1542 1528 1512 1486 1471 1453 1465 1466 1492 1562 1713 1864 1744 1640 1588 1573 1582 1605 1649 1697 1699 1557 1401 1265 1165 1133 994 889 783 676 589 503 446 396 347 307 290 273 259 254 253 248 247 242 235 227 227 217 217 208 206 195 185 171 159 156 153 133 113 120 117 109 97 82 76 62 53 46 43 43 38 31 19 13 12 13 8 7 7 32 80 122 143 180 246 337 463 513 602 652 549 526 543 578 624 679 779 884 1007 1037 1058 1058 1079 1118 1117 1071 1040 1019 1008 1002 989 987 980 965 958 946 936 937 921
671 654 663 651 635 638 622 634 625 633 600 586 583 581 576 573 569 561 547 502 502 518 515 523 513 512 508 507 503 503 496 494 488 473 541 568 603 615 633 655 684 711 715 712 742 766 788 847 853 893 938 1025 1070 1091 1100 1158 1258 1351 1432 1494 1486 1497 1636 1783 1644 1533 1516 1511 1514 1527 1544 1659 1665 1611 1588 1609 1672 1820 1748 1628 1565 1561 1553 1530 1510 1486 1479 1477 1486 1502 1561 1729 1881 1712 1629 1598 1599 1634 1680 1656 1546 1468 1479 1369 1191 1048 962 884 761 683 578 477 404 374 337 305 298 276 273 267 264 258 255 251 247 243 232 229 226 221 213 211 203 190 177 158 163 148 138 141 128 113 107 98 92 84 73 68 55 44 38 28 18 17 18 14 15 6 5 39 91 150 196 227 241 272 357 390 418 506 612 538 526 539 576 622 687 766 874 995 1053 1076 1072 1116 1157 1112 1055 1025 1024 1011 1009 992 988 983 975 963 959 961 948 925
684 676 667 654 648 645 634 624 620 611 595 595 586 605 583 577 574 553 589 526 491 508 512 522 518 513 496 494 493 489 485 505 522 559 617 668 695 706 731 763 767 771 756 787 815 840 880 924 956 1001 1045 1108 1176 1200 1264 1288 1369 1480 1591 1715 1620 1583 1668 1807 1668 1549 1541 1532 1532 1542 1562 1629 1743 1652 1614 1640 1728 1861 1727 1640 1586 1584 1570 1573 1520 1501 1502 1499 1494 1505 1580 1713 1833 1699 1648 1645 1713 1720 1706 1565 1438 1361 1325 1227 1092 967 848 760 639 535 484 387 324 316 321 287 287 280 273 277 269 262 268 248 247 244 237 233 232 225 213 210 205 191 178 170 165 155 154 147 129 121 110 107 95 88 80 79 64 59 42 37 21 12 9 6 7 4 44 94 155 231 306 336 319 321 392 428 451 462 556 529 528 538 571 617 692 777 875 1001 1075 1087 1108 1159 1182 1094 1059 1039 1034 1019 1011 999 990 986 981 972 961 1022 1025 927
688 678 675 663 654 654 637 625 630 613 606 593 604 602 592 593 566 623 627 594 555 547 565 558 575 579 609 607 602 624 614 614 639 688 746 787 776 773 807 825 847 846 851 891 920 925 985 1058 1128 1153 1206 1256 1308 1344 1420 1418 1463 1523 1586 1675 1767 1725 1780 1791 1655 1577 1564 1546 1541 1564 1579 1618 1751 1677 1637 1697 1815 1854 1693 1621 1602 1594 1593 1616 1537 1517 1522 1522 1521 1549 1658 1811 1866 1743 1717 1654 1567 1513 1497 1513 1374 1287 1224 1112 974 887 749 661 560 453 383 306 287 288 292 294 293 303 282 277 277 271 263 253 250 245 240 236 233 231 223 215 204 198 180 173 166 161 139 142 134 132 119 110 111 93 85 78 68 67 43 28 17 13 9 5 7 49 97 155 213 331 410 485 461 402 415 462 482 493 519 539 534 551 562 622 701 791 890 1024 1074 1126 1151 1202 1179 1096 1057 1040 1040 1033 1019 1014 1007 1013 1012 1004 1008 1046 1004 957
681 681 668 665 672 658 640 631 617 615 627 620 621 615 621 593 620 641 695 708 680 674 716 721 735 748 773 789 820 820 763 758 784 849 879 880 902 908 903 926 969 967 963 1010 1047 1054 1123 1219 1297 1315 1339 1387 1422 1432 1529 1570 1510 1557 1595 1630 1768 1863 1859 1720 1620 1585 1584 1550 1568 1586 1593 1631 1705 1731 1716 1797 1925 1794 1672 1652 1620 1613 1617 1647 1552 1543 1550 1547 1580 1644 1736 1834 1709 1615 1490 1459 1410 1358 1343 1357 1374 1263 1102 988 873 740 632 555 469 372 296 287 297 304 306 305 323 315 294 284 284 268 265 257 255 243 240 241 236 227 225 220 205 200 183 176 175 177 159 152 142 135 127 116 113 101 88 87 71 59 59 41 15 8 7 12 59 121 180 256 316 336 472 565 605 549 496 485 505 518 541 554 549 563 580 629 724 810 891 976 1010 1039 1115 1207 1191 1098 1076 1049 1045 1037 1038 1032 1022 1049 1046 1051 1075 1065 1017 1016
693 692 672 679 674 656 643 648 646 643 651 640 627 635 612 579 676 699 744 754 746 770 800 819 835 862 904 936 966 956 917 918 950 999 1009 1003 1034 1053 1054 1069 1098 1112 1108 1136 1180 1264 1318 1361 1456 1404 1400 1423 1539 1489 1534 1679 1601 1584 1606 1636 1711 1886 1798 1684 1618 1603 1584 1591 1615 1612 1614 1636 1700 1752 1792 1897 1940 1751 1675 1647 1640 1626 1645 1663 1589 1577 1574 1573 1635 1787 1842 1815 1640 1504 1385 1336 1311 1292 1280 1252 1230 1151 1017 874 760 636 524 459 392 311 293 307 315 311 308 307 318 303 299 291 278 270 262 259 251 250 243 244 235 230 219 212 205 198 193 176 176 166 160 156 146 135 134 127 115 109 105 85 77 72 65 64 37 11 18 76 136 228 303 381 435 439 463 573 664 685 606 525 524 536 557 567 578 581 591 631 728 817 893 962 993 1012 1083 1166 1220 1102 1076 1066 1063 1066 1061 1058 1070 1086 1098 1123 1176 1117 1063 1097
695 664 664 670 676 662 655 659 653 667 651 644 644 620 609 650 730 759 792 802 819 876 927 944 967 1013 1051 1092 1138 1091 1065 1082 1109 1157 1174 1195 1189 1206 1221 1247 1249 1274 1265 1265 1294 1384 1461 1522 1588 1492 1450 1463 1554 1546 1578 1647 1697 1627 1641 1668 1728 1873 1797 1705 1641 1619 1623 1646 1654 1621 1628 1640 1682 1701 1739 1879 1928 1757 1675 1654 1638 1630 1707 1669 1605 1585 1583 1593 1706 1715 1677 1751 1628 1488 1362 1340 1319 1289 1268 1249 1213 1078 921 812 683 570 459 371 314 293 318 317 316 321 317 311 304 302 303 292 288 280 270 260 259 256 249 249 242 231 226 224 209 203 191 189 183 173 170 159 157 144 135 131 120 111 101 88 74 85 81 66 34 30 77 138 235 348 443 512 545 537 527 582 664 732 685 563 550 555 571 587 595 607 613 639 741 826 895 948 980 1027 1079 1144 1213 1139 1123 1082 1075 1081 1088 1106 1143 1148 1139 1177 1246 1184 1134 1144
707 682 654 659 667 651 664 670 673 665 657 654 630 632 598 762 824 867 909 939 952 1012 1098 1096 1106 1164 1208 1241 1313 1252 1213 1226 1280 1320 1323 1387 1353 1366 1395 1429 1396 1412 1364 1362 1384 1418 1543 1713 1673 1551 1498 1506 1565 1623 1643 1667 1761 1746 1701 1699 1720 1830 1866 1783 1730 1691 1706 1708 1679 1648 1650 1648 1662 1684 1745 1844 1956 1813 1676 1641 1639 1670 1794 1715 1639 1631 1618 1632 1546 1547 1618 1632 1671 1552 1450 1399 1382 1379 1330 1253 1157 1031 896 753 605 505 416 319 297 333 337 324 320 317 321 318 306 312 298 296 292 281 272 266 263 262 256 250 245 233 228 221 210 201 191 194 187 173 164 169 153 144 137 133 121 110 105 94 87 103 114 106 51 98 170 271 378 477 585 662 631 597 585 603 665 742 716 626 580 584 600 605 612 620 633 647 742 828 885 935 968 1038 1108 1164 1231 1166 1125 1098 1094 1114 1116 1156 1239 1215 1162 1166 1221 1247 1248 1244
